-8.815960884094238281e-01 1.284421205520629883e+00 -4.818282127380371094e-01
-8.269360065460205078e-01 1.349013090133666992e+00 -4.660265147686004639e-01
-7.607715129852294922e-01 1.410128951072692871e+00 -4.504592418670654297e-01
-6.844146251678466797e-01 1.463618874549865723e+00 -4.367804527282714844e-01
-6.002876162528991699e-01 1.508206367492675781e+00 -4.249611198902130127e-01
-5.115305781364440918e-01 1.544468522071838379e+00 -4.138867557048797607e-01
-4.212933778762817383e-01 1.573016405105590820e+00 -4.024423360824584961e-01
-3.326939940452575684e-01 1.594680547714233398e+00 -3.905954957008361816e-01
-2.487992048263549805e-01 1.610630035400390625e+00 -3.799913525581359863e-01
-1.726716011762619019e-01 1.622062683105468750e+00 -3.724193572998046875e-01
-1.060014516115188599e-01 1.629795551300048828e+00 -3.693067431449890137e-01
-4.499283060431480408e-02 1.633123397827148438e+00 -3.706317543983459473e-01
1.552332658320665359e-02 1.630959033966064453e+00 -3.760101795196533203e-01
8.032581210136413574e-02 1.622365355491638184e+00 -3.849852979183197021e-01
1.496615111827850342e-01 1.608137488365173340e+00 -3.962562084197998047e-01
2.208535373210906982e-01 1.590188980102539062e+00 -4.079771935939788818e-01
2.912057042121887207e-01 1.570413351058959961e+00 -4.183138012886047363e-01
3.597997426986694336e-01 1.548429727554321289e+00 -4.266567826271057129e-01
4.284709692001342773e-01 1.520330190658569336e+00 -4.342949092388153076e-01
4.992928504943847656e-01 1.481903672218322754e+00 -4.426807165145874023e-01
5.725833177566528320e-01 1.430024623870849609e+00 -4.530787169933319092e-01
6.416384577751159668e-01 1.365910530090332031e+00 -4.660020470619201660e-01
6.979994773864746094e-01 1.291864395141601562e+00 -4.817760586738586426e-01
7.340466976165771484e-01 1.210289716720581055e+00 -5.005248785018920898e-01
7.519195079803466797e-01 1.124765157699584961e+00 -5.200332403182983398e-01
7.600536346435546875e-01 1.039625048637390137e+00 -5.365766882896423340e-01
7.669285535812377930e-01 9.591495990753173828e-01 -5.464397072792053223e-01
7.773669362068176270e-01 8.836050033569335938e-01 -5.479462146759033203e-01
7.905221581459045410e-01 8.070352673530578613e-01 -5.425813198089599609e-01
8.050602078437805176e-01 7.229490280151367188e-01 -5.321022272109985352e-01
8.206593990325927734e-01 6.272979974746704102e-01 -5.184306502342224121e-01
8.410481214523315430e-01 5.258109569549560547e-01 -5.041474699974060059e-01
8.709673881530761719e-01 4.266588687896728516e-01 -4.919982254505157471e-01
9.143675565719604492e-01 3.372219800949096680e-01 -4.844857454299926758e-01
9.660076498985290527e-01 2.556832432746887207e-01 -4.812935888767242432e-01
1.014716625213623047e+00 1.742914617061614990e-01 -4.802857637405395508e-01
1.049326300621032715e+00 8.527138084173202515e-02 -4.793001115322113037e-01
1.064774990081787109e+00 -1.463294681161642075e-02 -4.763976931571960449e-01
1.065467119216918945e+00 -1.216763257980346680e-01 -4.699861407279968262e-01
1.056621432304382324e+00 -2.315106391906738281e-01 -4.585027396678924561e-01
1.042328834533691406e+00 -3.406519293785095215e-01 -4.413318336009979248e-01
1.022171139717102051e+00 -4.490725398063659668e-01 -4.216454029083251953e-01
9.946020841598510742e-01 -5.576096773147583008e-01 -4.035621583461761475e-01
9.584148526191711426e-01 -6.666649580001831055e-01 -3.909063935279846191e-01
9.163392186164855957e-01 -7.715996503829956055e-01 -3.840751945972442627e-01
8.736448884010314941e-01 -8.645215034484863281e-01 -3.812549114227294922e-01
8.355903029441833496e-01 -9.375832080841064453e-01 -3.806044161319732666e-01
8.042014837265014648e-01 -9.888832569122314453e-01 -3.808452486991882324e-01
7.764939069747924805e-01 -1.025736570358276367e+00 -3.815711438655853271e-01
7.111868858337402344e-01 -1.097880840301513672e+00 -4.363001585006713867e-01
6.750293970108032227e-01 -1.132349967956542969e+00 -4.359666407108306885e-01
6.339454650878906250e-01 -1.171193718910217285e+00 -4.357475042343139648e-01
5.883201360702514648e-01 -1.215504884719848633e+00 -4.366998076438903809e-01
5.384619235992431641e-01 -1.266211748123168945e+00 -4.399257004261016846e-01
4.837840795516967773e-01 -1.322316884994506836e+00 -4.470557570457458496e-01
4.231222867965698242e-01 -1.381581783294677734e+00 -4.600610733032226562e-01
3.553368449211120605e-01 -1.441712141036987305e+00 -4.808676540851593018e-01
2.813182175159454346e-01 -1.498304367065429688e+00 -5.083338022232055664e-01
2.051042616367340088e-01 -1.543685317039489746e+00 -5.365633368492126465e-01
1.310036480426788330e-01 -1.569900989532470703e+00 -5.592513084411621094e-01
6.236989051103591919e-02 -1.572126865386962891e+00 -5.718427896499633789e-01
-1.263141399249434471e-03 -1.558055877685546875e+00 -5.767834186553955078e-01
-6.131672486662864685e-02 -1.538511991500854492e+00 -5.782696008682250977e-01
-1.190753281116485596e-01 -1.523331165313720703e+00 -5.801993012428283691e-01
-1.742330491542816162e-01 -1.510876417160034180e+00 -5.830096006393432617e-01
-2.254583239555358887e-01 -1.492109179496765137e+00 -5.849043726921081543e-01
-2.714212238788604736e-01 -1.457969665527343750e+00 -5.840624570846557617e-01
-3.119305074214935303e-01 -1.405537366867065430e+00 -5.793982744216918945e-01
-3.485600352287292480e-01 -1.341408014297485352e+00 -5.709666609764099121e-01
-3.830353617668151855e-01 -1.272996664047241211e+00 -5.589203834533691406e-01
-4.172177612781524658e-01 -1.205945730209350586e+00 -5.437098145484924316e-01
-4.535108208656311035e-01 -1.138810753822326660e+00 -5.269747972488403320e-01
-4.944536089897155762e-01 -1.068374395370483398e+00 -5.106524229049682617e-01
-5.422824025154113770e-01 -9.916666150093078613e-01 -4.965695142745971680e-01
-5.957102775573730469e-01 -9.085869193077087402e-01 -4.852650165557861328e-01
-6.511774063110351562e-01 -8.208857774734497070e-01 -4.764475226402282715e-01
-7.051035165786743164e-01 -7.303678989410400391e-01 -4.698172509670257568e-01
-7.549533843994140625e-01 -6.402566432952880859e-01 -4.654128551483154297e-01
-7.998108267784118652e-01 -5.559754371643066406e-01 -4.637972712516784668e-01
-8.388995528221130371e-01 -4.831356704235076904e-01 -4.655785262584686279e-01
-8.719025850296020508e-01 -4.246083199977874756e-01 -4.712750017642974854e-01
-9.003411531448364258e-01 -3.723012208938598633e-01 -4.810460805892944336e-01
-9.261959791183471680e-01 -3.153810203075408936e-01 -4.949615001678466797e-01
-9.514799118041992188e-01 -2.436967790126800537e-01 -5.129153728485107422e-01
-9.785749316215515137e-01 -1.550331413745880127e-01 -5.327582359313964844e-01
-1.010101795196533203e+00 -5.229339003562927246e-02 -5.510227084159851074e-01
-1.048607110977172852e+00 6.151654571294784546e-02 -5.642600059509277344e-01
-1.091954708099365234e+00 1.823437809944152832e-01 -5.714644193649291992e-01
-1.130750894546508789e+00 3.045151233673095703e-01 -5.754164457321166992e-01
-1.154977798461914062e+00 4.222176969051361084e-01 -5.792227387428283691e-01
-1.157394051551818848e+00 5.309200286865234375e-01 -5.852075815200805664e-01
-1.141865611076354980e+00 6.312139034271240234e-01 -5.925666689872741699e-01
-1.115035533905029297e+00 7.249734401702880859e-01 -5.997135639190673828e-01
-1.083348989486694336e+00 8.139141201972961426e-01 -6.051333546638488770e-01
-1.050950050354003906e+00 8.979054093360900879e-01 -6.081398725509643555e-01
-1.020497798919677734e+00 9.756270647048950195e-01 -6.085812449455261230e-01
-9.945742487907409668e-01 1.045771598815917969e+00 -6.063134670257568359e-01
-9.726032018661499023e-01 1.108949542045593262e+00 -6.010990142822265625e-01
-9.491109251976013184e-01 1.168746829032897949e+00 -5.925551652908325195e-01
-9.182034134864807129e-01 1.229005813598632812e+00 -5.802870988845825195e-01
-8.751510977745056152e-01 1.292249202728271484e+00 -5.641961097717285156e-01
-8.198838233947753906e-01 1.355731248855590820e+00 -5.453695058822631836e-01
-7.534961700439453125e-01 1.415387392044067383e+00 -5.251906514167785645e-01
-6.771801710128784180e-01 1.467390894889831543e+00 -5.050036907196044922e-01
-5.932614207267761230e-01 1.510686397552490234e+00 -4.856925904750823975e-01
-5.047985315322875977e-01 1.546004772186279297e+00 -4.678449630737304688e-01
-4.148626327514648438e-01 1.574108123779296875e+00 -4.520431160926818848e-01
-3.266377449035644531e-01 1.595821619033813477e+00 -4.388750493526458740e-01
-2.434820383787155151e-01 1.612069129943847656e+00 -4.289365410804748535e-01
-1.687686443328857422e-01 1.623781919479370117e+00 -4.228242933750152588e-01
-1.043578237295150757e-01 1.631579279899597168e+00 -4.209716320037841797e-01
-4.606088995933532715e-02 1.634832143783569336e+00 -4.231586456298828125e-01
1.182452496141195297e-02 1.632597923278808594e+00 -4.290018975734710693e-01
7.457794249057769775e-02 1.624069213867187500e+00 -4.380664825439453125e-01
1.425676345825195312e-01 1.609994649887084961e+00 -4.493185579776763916e-01
2.129933238029479980e-01 1.592127323150634766e+00 -4.613373875617980957e-01
2.830317318439483643e-01 1.572203397750854492e+00 -4.727098941802978516e-01
3.516482114791870117e-01 1.549934148788452148e+00 -4.828567802906036377e-01
4.205785989761352539e-01 1.521892189979553223e+00 -4.924904704093933105e-01
4.917984604835510254e-01 1.484379649162292480e+00 -5.024347901344299316e-01
5.655620098114013672e-01 1.434549927711486816e+00 -5.135431885719299316e-01
6.352386474609375000e-01 1.372956275939941406e+00 -5.267870426177978516e-01
6.924768090248107910e-01 1.301002740859985352e+00 -5.431671738624572754e-01
7.297368049621582031e-01 1.220242142677307129e+00 -5.634267330169677734e-01
7.489140033721923828e-01 1.133968353271484375e+00 -5.853102207183837891e-01
7.579914331436157227e-01 1.046595096588134766e+00 -6.046277284622192383e-01
7.649973630905151367e-01 9.624934196472167969e-01 -6.171932220458984375e-01
7.745750546455383301e-01 8.823311328887939453e-01 -6.209950447082519531e-01
7.861206531524658203e-01 8.010352253913879395e-01 -6.173912286758422852e-01
7.985793352127075195e-01 7.130385637283325195e-01 -6.080294847488403320e-01
8.119992017745971680e-01 6.150426864624023438e-01 -5.947626829147338867e-01
8.308404684066772461e-01 5.128272771835327148e-01 -5.802642107009887695e-01
8.606666326522827148e-01 4.144397377967834473e-01 -5.674117803573608398e-01
9.061386585235595703e-01 3.271093964576721191e-01 -5.588364601135253906e-01
9.614254832267761230e-01 2.485515028238296509e-01 -5.542967319488525391e-01
1.013926386833190918e+00 1.703428626060485840e-01 -5.516982078552246094e-01
1.051043391227722168e+00 8.403711020946502686e-02 -5.489196777343750000e-01
1.067090511322021484e+00 -1.403382420539855957e-02 -5.440880656242370605e-01
1.067096948623657227e+00 -1.201355308294296265e-01 -5.357151627540588379e-01
1.057013273239135742e+00 -2.298961132764816284e-01 -5.223457813262939453e-01
1.041572093963623047e+00 -3.397281169891357422e-01 -5.034276843070983887e-01
1.020633339881896973e+00 -4.491819739341735840e-01 -4.820197224617004395e-01
9.928382635116577148e-01 -5.585931539535522461e-01 -4.620836079120635986e-01
9.571390151977539062e-01 -6.679067611694335938e-01 -4.473177492618560791e-01
9.160895943641662598e-01 -7.725529670715332031e-01 -4.383567571640014648e-01
8.745691776275634766e-01 -8.650479912757873535e-01 -4.338588416576385498e-01
8.374445438385009766e-01 -9.379535317420959473e-01 -4.324519634246826172e-01
8.065315485000610352e-01 -9.895110130310058594e-01 -4.329237937927246094e-01
7.789161205291748047e-01 -1.026764869689941406e+00 -4.343093037605285645e-01
7.095126509666442871e-01 -1.095864772796630859e+00 -4.842653274536132812e-01
6.727667450904846191e-01 -1.130346536636352539e+00 -4.836060404777526855e-01
6.314691901206970215e-01 -1.168945193290710449e+00 -4.826306104660034180e-01
5.865353345870971680e-01 -1.212567567825317383e+00 -4.822976589202880859e-01
5.387249588966369629e-01 -1.261995077133178711e+00 -4.837098717689514160e-01
4.869876205921173096e-01 -1.316544055938720703e+00 -4.896417260169982910e-01
4.291051626205444336e-01 -1.374586701393127441e+00 -5.039466619491577148e-01
3.628847599029541016e-01 -1.434437513351440430e+00 -5.304131507873535156e-01
2.888088822364807129e-01 -1.491886019706726074e+00 -5.678482055664062500e-01
2.115068435668945312e-01 -1.538809776306152344e+00 -6.073378324508666992e-01
1.359649151563644409e-01 -1.566750049591064453e+00 -6.393041014671325684e-01
6.607544422149658203e-02 -1.570454835891723633e+00 -6.567468643188476562e-01
1.356041058897972107e-03 -1.557503461837768555e+00 -6.629795432090759277e-01
-5.976951494812965393e-02 -1.538682699203491211e+00 -6.638936400413513184e-01
-1.187315806746482849e-01 -1.523782014846801758e+00 -6.649705171585083008e-01
-1.752643138170242310e-01 -1.510995388031005859e+00 -6.669266223907470703e-01
-2.280079722404479980e-01 -1.491036176681518555e+00 -6.674038171768188477e-01
-2.755996584892272949e-01 -1.454601407051086426e+00 -6.640148162841796875e-01
-3.175949454307556152e-01 -1.398904800415039062e+00 -6.556855440139770508e-01
-3.549734055995941162e-01 -1.331260919570922852e+00 -6.433780789375305176e-01
-3.888368010520935059e-01 -1.259853839874267578e+00 -6.282296180725097656e-01
-4.206954836845397949e-01 -1.190965175628662109e+00 -6.114006042480468750e-01
-4.536927938461303711e-01 -1.123269200325012207e+00 -5.941442251205444336e-01
-4.913803339004516602e-01 -1.053538322448730469e+00 -5.777367353439331055e-01
-5.369420647621154785e-01 -9.787622094154357910e-01 -5.633767247200012207e-01
-5.892864465713500977e-01 -8.984536528587341309e-01 -5.513572096824645996e-01
-6.445629596710205078e-01 -8.137536048889160156e-01 -5.413868427276611328e-01
-6.988935470581054688e-01 -7.258605360984802246e-01 -5.331721901893615723e-01
-7.494681477546691895e-01 -6.378099918365478516e-01 -5.268750786781311035e-01
-7.951322793960571289e-01 -5.554857850074768066e-01 -5.233629941940307617e-01
-8.348746299743652344e-01 -4.850157797336578369e-01 -5.235639214515686035e-01
-8.682215213775634766e-01 -4.295250177383422852e-01 -5.281027555465698242e-01
-8.968510627746582031e-01 -3.801255822181701660e-01 -5.363903641700744629e-01
-9.229801297187805176e-01 -3.249259293079376221e-01 -5.475342869758605957e-01
-9.488297700881958008e-01 -2.528321444988250732e-01 -5.606166124343872070e-01
-9.766727089881896973e-01 -1.620239615440368652e-01 -5.744201540946960449e-01
-1.008815288543701172e+00 -5.666317790746688843e-02 -5.875353813171386719e-01
-1.047491312026977539e+00 5.898175388574600220e-02 -5.985736250877380371e-01
-1.090514659881591797e+00 1.802165806293487549e-01 -6.076052188873291016e-01
-1.128850579261779785e+00 3.016896247863769531e-01 -6.169617176055908203e-01
-1.152875065803527832e+00 4.179922640323638916e-01 -6.291690468788146973e-01
-1.155612945556640625e+00 5.250453948974609375e-01 -6.457189917564392090e-01
-1.140684723854064941e+00 6.240860223770141602e-01 -6.639640331268310547e-01
-1.114360213279724121e+00 7.176816463470458984e-01 -6.802225112915039062e-01
-1.082731962203979492e+00 8.081626892089843750e-01 -6.910693049430847168e-01
-1.049834847450256348e+00 8.951035737991333008e-01 -6.960600614547729492e-01
-1.018375635147094727e+00 9.763022661209106445e-01 -6.966739892959594727e-01
-9.909874200820922852e-01 1.049565672874450684e+00 -6.944049596786499023e-01
-9.671772718429565430e-01 1.115015745162963867e+00 -6.896858215332031250e-01
-9.416065812110900879e-01 1.176362872123718262e+00 -6.813043355941772461e-01
-9.085206389427185059e-01 1.237627148628234863e+00 -6.679075956344604492e-01
-8.633655905723571777e-01 1.301426053047180176e+00 -6.486564278602600098e-01
-8.063937425613403320e-01 1.364775419235229492e+00 -6.247707605361938477e-01
-7.390583753585815430e-01 1.423288345336914062e+00 -5.979845523834228516e-01
-6.628761887550354004e-01 1.472880363464355469e+00 -5.700440406799316406e-01
-5.800935626029968262e-01 1.512966156005859375e+00 -5.428379178047180176e-01
-4.934304356575012207e-01 1.545218229293823242e+00 -5.183470845222473145e-01
-4.056162834167480469e-01 1.571338415145874023e+00 -4.985369741916656494e-01
-3.195905983448028564e-01 1.592523455619812012e+00 -4.843966364860534668e-01
-2.386170923709869385e-01 1.609185338020324707e+00 -4.754004478454589844e-01
-1.659875214099884033e-01 1.621669054031372070e+00 -4.708924889564514160e-01
-1.035076379776000977e-01 1.630134820938110352e+00 -4.702516794204711914e-01
-4.704188555479049683e-02 1.634004831314086914e+00 -4.729963541030883789e-01
9.032137691974639893e-03 1.632515668869018555e+00 -4.786792099475860596e-01
6.993049383163452148e-02 1.625016808509826660e+00 -4.868449270725250244e-01
1.361506134271621704e-01 1.612158060073852539e+00 -4.969403743743896484e-01
2.051456272602081299e-01 1.595428347587585449e+00 -5.083497166633605957e-01
2.743453085422515869e-01 1.576300024986267090e+00 -5.204594731330871582e-01
3.428260087966918945e-01 1.554457902908325195e+00 -5.328774452209472656e-01
4.122144579887390137e-01 1.526813864707946777e+00 -5.455532670021057129e-01
4.843578636646270752e-01 1.490041136741638184e+00 -5.584664344787597656e-01
5.593835711479187012e-01 1.441512584686279297e+00 -5.718173980712890625e-01
6.305392980575561523e-01 1.381397008895874023e+00 -5.866909027099609375e-01
6.893528699874877930e-01 1.310562610626220703e+00 -6.043928861618041992e-01
7.281558513641357422e-01 1.230048418045043945e+00 -6.259713768959045410e-01
7.486235499382019043e-01 1.142887115478515625e+00 -6.494789123535156250e-01
7.584596276283264160e-01 1.053393840789794922e+00 -6.710353493690490723e-01
7.654163241386413574e-01 9.658513069152832031e-01 -6.867578029632568359e-01
7.741370201110839844e-01 8.812291622161865234e-01 -6.945212483406066895e-01
7.844456434249877930e-01 7.953625917434692383e-01 -6.949259042739868164e-01
7.957518100738525391e-01 7.036449909210205078e-01 -6.888065338134765625e-01
8.085068464279174805e-01 6.035349369049072266e-01 -6.773725152015686035e-01
8.273298740386962891e-01 5.007550120353698730e-01 -6.633340716361999512e-01
8.578819036483764648e-01 4.030916988849639893e-01 -6.497762203216552734e-01
9.048854112625122070e-01 3.175148963928222656e-01 -6.395244598388671875e-01
9.621532559394836426e-01 2.414913177490234375e-01 -6.323885321617126465e-01
1.016459226608276367e+00 1.663567125797271729e-01 -6.262316703796386719e-01
1.054581642150878906e+00 8.341988921165466309e-02 -6.188944578170776367e-01
1.070587277412414551e+00 -1.145760901272296906e-02 -6.087961792945861816e-01
1.069842100143432617e+00 -1.153611689805984497e-01 -5.952525734901428223e-01
1.058684229850769043e+00 -2.247688621282577515e-01 -5.776565670967102051e-01
1.042188167572021484e+00 -3.365384340286254883e-01 -5.560600757598876953e-01
1.020378351211547852e+00 -4.490463137626647949e-01 -5.331514477729797363e-01
9.920156002044677734e-01 -5.610494017601013184e-01 -5.122777223587036133e-01
9.561553597450256348e-01 -6.710454225540161133e-01 -4.965665638446807861e-01
9.152661561965942383e-01 -7.745474576950073242e-01 -4.865882992744445801e-01
8.740196228027343750e-01 -8.651406168937683105e-01 -4.812638163566589355e-01
8.370748162269592285e-01 -9.364635944366455078e-01 -4.794855713844299316e-01
8.061296343803405762e-01 -9.873073101043701172e-01 -4.800986647605895996e-01
7.782920002937316895e-01 -1.024446845054626465e+00 -4.818738698959350586e-01
7.058051824569702148e-01 -1.092082023620605469e+00 -5.278875231742858887e-01
6.685584187507629395e-01 -1.127004742622375488e+00 -5.275392532348632812e-01
6.271499395370483398e-01 -1.165852785110473633e+00 -5.266307592391967773e-01
5.829529762268066406e-01 -1.209160327911376953e+00 -5.257645845413208008e-01
5.371184945106506348e-01 -1.257392048835754395e+00 -5.258117914199829102e-01
4.882084131240844727e-01 -1.310203790664672852e+00 -5.307626724243164062e-01
4.331141412258148193e-01 -1.366729974746704102e+00 -5.466202497482299805e-01
3.687525391578674316e-01 -1.426046133041381836e+00 -5.793024301528930664e-01
2.952089011669158936e-01 -1.484215497970581055e+00 -6.276178359985351562e-01
2.174804955720901489e-01 -1.532633066177368164e+00 -6.793552637100219727e-01
1.409868896007537842e-01 -1.562291860580444336e+00 -7.213560938835144043e-01
6.998208165168762207e-02 -1.567465543746948242e+00 -7.439508438110351562e-01
4.057699814438819885e-03 -1.555547952651977539e+00 -7.514287233352661133e-01
-5.836033076047897339e-02 -1.537213802337646484e+00 -7.515692710876464844e-01
-1.187047958374023438e-01 -1.522144198417663574e+00 -7.516175508499145508e-01
-1.767653822898864746e-01 -1.508481025695800781e+00 -7.526162862777709961e-01
-2.312721014022827148e-01 -1.486919641494750977e+00 -7.516063451766967773e-01
-2.809477746486663818e-01 -1.448144674301147461e+00 -7.455950975418090820e-01
-3.251569271087646484e-01 -1.389596939086914062e+00 -7.335867285728454590e-01
-3.642589449882507324e-01 -1.319189429283142090e+00 -7.176811695098876953e-01
-3.986985683441162109e-01 -1.245736479759216309e+00 -7.002446651458740234e-01
-4.295646846294403076e-01 -1.176006793975830078e+00 -6.832759380340576172e-01
-4.605216383934020996e-01 -1.108589410781860352e+00 -6.673023700714111328e-01
-4.958776831626892090e-01 -1.040027737617492676e+00 -6.524842977523803711e-01
-5.395283699035644531e-01 -9.670829772949218750e-01 -6.389591693878173828e-01
-5.905690193176269531e-01 -8.890495896339416504e-01 -6.266030669212341309e-01
-6.449977755546569824e-01 -8.068561553955078125e-01 -6.151236295700073242e-01
-6.987802386283874512e-01 -7.214900851249694824e-01 -6.042373776435852051e-01
-7.489864826202392578e-01 -6.358602046966552734e-01 -5.943672060966491699e-01
-7.943992018699645996e-01 -5.558540821075439453e-01 -5.870311260223388672e-01
-8.339484333992004395e-01 -4.876148402690887451e-01 -5.838410854339599609e-01
-8.671265840530395508e-01 -4.341993927955627441e-01 -5.857703685760498047e-01
-8.956732749938964844e-01 -3.863204717636108398e-01 -5.912359952926635742e-01
-9.218910336494445801e-01 -3.316044509410858154e-01 -5.980162620544433594e-01
-9.480643272399902344e-01 -2.585531771183013916e-01 -6.040686964988708496e-01
-9.762716293334960938e-01 -1.658494472503662109e-01 -6.094369292259216309e-01
-1.008458852767944336e+00 -5.874343216419219971e-02 -6.155102849006652832e-01
-1.046502590179443359e+00 5.740934982895851135e-02 -6.236999034881591797e-01
-1.088246583938598633e+00 1.774884462356567383e-01 -6.353714466094970703e-01
-1.125285387039184570e+00 2.967404127120971680e-01 -6.518205404281616211e-01
-1.148675203323364258e+00 4.104430079460144043e-01 -6.743366122245788574e-01
-1.151882648468017578e+00 5.151893496513366699e-01 -7.030318975448608398e-01
-1.138014554977416992e+00 6.128319501876831055e-01 -7.333083748817443848e-01
-1.112587571144104004e+00 7.065393924713134766e-01 -7.593907117843627930e-01
-1.080995321273803711e+00 7.991610765457153320e-01 -7.759588956832885742e-01
-1.047193884849548340e+00 8.898354768753051758e-01 -7.829798460006713867e-01
-1.014211416244506836e+00 9.753075838088989258e-01 -7.838324308395385742e-01
-9.850062131881713867e-01 1.052330493927001953e+00 -7.819141149520874023e-01
-9.592468738555908203e-01 1.120494604110717773e+00 -7.783166170120239258e-01
-9.315007925033569336e-01 1.183789849281311035e+00 -7.705571055412292480e-01
-8.958979249000549316e-01 1.246585130691528320e+00 -7.558462619781494141e-01
-8.479111790657043457e-01 1.311672687530517578e+00 -7.323179841041564941e-01
-7.883899807929992676e-01 1.375544667243957520e+00 -7.018027305603027344e-01
-7.195269465446472168e-01 1.433116912841796875e+00 -6.670542955398559570e-01
-6.435149908065795898e-01 1.479711532592773438e+00 -6.308372020721435547e-01
-5.625449419021606445e-01 1.515371561050415039e+00 -5.960341691970825195e-01
-4.788084030151367188e-01 1.543184757232666016e+00 -5.656055212020874023e-01
-3.944994211196899414e-01 1.566268205642700195e+00 -5.424823164939880371e-01
-3.120707273483276367e-01 1.586430311203002930e+00 -5.278126001358032227e-01
-2.343741357326507568e-01 1.603449583053588867e+00 -5.199801921844482422e-01
-1.642959713935852051e-01 1.616930842399597168e+00 -5.171312093734741211e-01
-1.034013107419013977e-01 1.626441478729248047e+00 -5.176276564598083496e-01
-4.797292500734329224e-02 1.631403088569641113e+00 -5.206962227821350098e-01
7.028448861092329025e-03 1.631199836730957031e+00 -5.257791876792907715e-01
6.629209220409393311e-02 1.625307321548461914e+00 -5.323700904846191406e-01
1.304429769515991211e-01 1.614254236221313477e+00 -5.405573844909667969e-01
1.974840462207794189e-01 1.599249124526977539e+00 -5.508129596710205078e-01
2.653975188732147217e-01 1.581484794616699219e+00 -5.636054873466491699e-01
3.335528373718261719e-01 1.560549855232238770e+00 -5.788308382034301758e-01
4.034675657749176025e-01 1.533547043800354004e+00 -5.954967737197875977e-01
4.768454432487487793e-01 1.497364282608032227e+00 -6.125346422195434570e-01
5.536453723907470703e-01 1.449522852897644043e+00 -6.292880773544311523e-01
6.268486380577087402e-01 1.390068650245666504e+00 -6.467481851577758789e-01
6.876920461654663086e-01 1.319681406021118164e+00 -6.663182377815246582e-01
7.282238602638244629e-01 1.239203095436096191e+00 -6.891765594482421875e-01
7.499229907989501953e-01 1.151384711265563965e+00 -7.138856649398803711e-01
7.603540420532226562e-01 1.060205698013305664e+00 -7.373214960098266602e-01
7.671350240707397461e-01 9.696199893951416016e-01 -7.563487291336059570e-01
7.750455141067504883e-01 8.807750344276428223e-01 -7.688733339309692383e-01
7.844647765159606934e-01 7.904693484306335449e-01 -7.744150757789611816e-01
7.953935265541076660e-01 6.951271891593933105e-01 -7.726327180862426758e-01
8.086971044540405273e-01 5.930061340332031250e-01 -7.637972831726074219e-01
8.286987543106079102e-01 4.897027909755706787e-01 -7.506293654441833496e-01
8.605867624282836914e-01 3.926459550857543945e-01 -7.364623546600341797e-01
9.086354970932006836e-01 3.084680438041687012e-01 -7.243483066558837891e-01
9.665017127990722656e-01 2.345357537269592285e-01 -7.140708565711975098e-01
1.020991206169128418e+00 1.622377038002014160e-01 -7.033048868179321289e-01
1.058917641639709473e+00 8.292929828166961670e-02 -6.897094249725341797e-01
1.074402570724487305e+00 -8.015104569494724274e-03 -6.721055507659912109e-01
1.072897315025329590e+00 -1.089953929185867310e-01 -6.511139869689941406e-01
1.060827255249023438e+00 -2.178753316402435303e-01 -6.275107860565185547e-01
1.043358206748962402e+00 -3.322983980178833008e-01 -6.023555397987365723e-01
1.020618915557861328e+00 -4.490267634391784668e-01 -5.778419375419616699e-01
9.914783239364624023e-01 -5.646030902862548828e-01 -5.564470291137695312e-01
9.550884962081909180e-01 -6.754936575889587402e-01 -5.404745340347290039e-01
9.138839840888977051e-01 -7.773042917251586914e-01 -5.302044153213500977e-01
8.724185228347778320e-01 -8.650839328765869141e-01 -5.246119499206542969e-01
8.352319002151489258e-01 -9.339463114738464355e-01 -5.226491689682006836e-01
8.039552569389343262e-01 -9.834739565849304199e-01 -5.231952667236328125e-01
7.757098078727722168e-01 -1.020175218582153320e+00 -5.250160694122314453e-01
7.015628218650817871e-01 -1.087929368019104004e+00 -5.677088499069213867e-01
6.640073060989379883e-01 -1.123420953750610352e+00 -5.681591033935546875e-01
6.226181983947753906e-01 -1.162690997123718262e+00 -5.680367350578308105e-01
5.790661573410034180e-01 -1.205864429473876953e+00 -5.674303174018859863e-01
5.347555875778198242e-01 -1.253053426742553711e+00 -5.668300986289978027e-01
4.879953861236572266e-01 -1.304209709167480469e+00 -5.713904500007629395e-01
4.350971579551696777e-01 -1.359183073043823242e+00 -5.892749428749084473e-01
3.723968863487243652e-01 -1.417763948440551758e+00 -6.285437345504760742e-01
2.996816635131835938e-01 -1.476302385330200195e+00 -6.880180239677429199e-01
2.220877408981323242e-01 -1.525814771652221680e+00 -7.521999478340148926e-01
1.452117115259170532e-01 -1.556859731674194336e+00 -8.043594360351562500e-01
7.346632331609725952e-02 -1.563310861587524414e+00 -8.321692943572998047e-01
6.530027370899915695e-03 -1.552305102348327637e+00 -8.409125804901123047e-01
-5.710249021649360657e-02 -1.534295320510864258e+00 -8.402758836746215820e-01
-1.188042759895324707e-01 -1.518759727478027344e+00 -8.392895460128784180e-01
-1.784104108810424805e-01 -1.503849625587463379e+00 -8.393678665161132812e-01
-2.347641885280609131e-01 -1.480409145355224609e+00 -8.370107412338256836e-01
-2.866985201835632324e-01 -1.439274787902832031e+00 -8.286806344985961914e-01
-3.334335386753082275e-01 -1.378168821334838867e+00 -8.135044574737548828e-01
-3.747895956039428711e-01 -1.305484533309936523e+00 -7.947387099266052246e-01
-4.106385111808776855e-01 -1.230534076690673828e+00 -7.759957313537597656e-01
-4.416667520999908447e-01 -1.160446405410766602e+00 -7.600809931755065918e-01
-4.718180298805236816e-01 -1.093618154525756836e+00 -7.465732097625732422e-01
-5.058505535125732422e-01 -1.026262760162353516e+00 -7.342442274093627930e-01
-5.480871200561523438e-01 -9.548328518867492676e-01 -7.219184637069702148e-01
-5.977872610092163086e-01 -8.785538673400878906e-01 -7.090278863906860352e-01
-6.509436368942260742e-01 -7.984403967857360840e-01 -6.953960061073303223e-01
-7.035136222839355469e-01 -7.155658006668090820e-01 -6.808691620826721191e-01
-7.525786757469177246e-01 -6.327302455902099609e-01 -6.662523746490478516e-01
-7.969621419906616211e-01 -5.554122328758239746e-01 -6.538369059562683105e-01
-8.356376886367797852e-01 -4.893193840980529785e-01 -6.460415720939636230e-01
-8.681402206420898438e-01 -4.371632933616638184e-01 -6.442672610282897949e-01
-8.962477445602416992e-01 -3.896691799163818359e-01 -6.458412408828735352e-01
-9.222998619079589844e-01 -3.345654010772705078e-01 -6.470727920532226562e-01
-9.485945701599121094e-01 -2.604888677597045898e-01 -6.446825265884399414e-01
-9.769476652145385742e-01 -1.666400283575057983e-01 -6.401753425598144531e-01
-1.008864283561706543e+00 -5.903384089469909668e-02 -6.381429433822631836e-01
-1.045785307884216309e+00 5.621527507901191711e-02 -6.431965827941894531e-01
-1.085614442825317383e+00 1.738231033086776733e-01 -6.580336093902587891e-01
-1.120773673057556152e+00 2.897948622703552246e-01 -6.823861598968505859e-01
-1.143212556838989258e+00 4.002463817596435547e-01 -7.157307863235473633e-01
-1.146974086761474609e+00 5.025343298912048340e-01 -7.563957571983337402e-01
-1.134470701217651367e+00 5.989776849746704102e-01 -7.981126308441162109e-01
-1.110208988189697266e+00 6.931369304656982422e-01 -8.334646224975585938e-01
-1.078647017478942871e+00 7.881861925125122070e-01 -8.556554317474365234e-01
-1.043688774108886719e+00 8.828059434890747070e-01 -8.650968074798583984e-01
-1.008880376815795898e+00 9.727789759635925293e-01 -8.668518066406250000e-01
-9.777029752731323242e-01 1.053894877433776855e+00 -8.660020828247070312e-01
-9.500340223312377930e-01 1.125242471694946289e+00 -8.640909790992736816e-01
-9.201648235321044922e-01 1.191025733947753906e+00 -8.571766614913940430e-01
-8.819072246551513672e-01 1.255889058113098145e+00 -8.408458232879638672e-01
-8.306377530097961426e-01 1.322725415229797363e+00 -8.121418952941894531e-01
-7.679932117462158203e-01 1.387427806854248047e+00 -7.739360332489013672e-01
-6.971753835678100586e-01 1.444137811660766602e+00 -7.305557727813720703e-01
-6.213041543960571289e-01 1.487519502639770508e+00 -6.862841844558715820e-01
-5.425429940223693848e-01 1.518299579620361328e+00 -6.448865532875061035e-01
-4.624407291412353516e-01 1.541117072105407715e+00 -6.097950339317321777e-01
-3.825383484363555908e-01 1.560639142990112305e+00 -5.843960046768188477e-01
-3.046347796916961670e-01 1.579381227493286133e+00 -5.697386264801025391e-01
-2.309270948171615601e-01 1.596519351005554199e+00 -5.632479190826416016e-01
-1.636468172073364258e-01 1.610943078994750977e+00 -5.620369911193847656e-01
-1.039741039276123047e-01 1.621631979942321777e+00 -5.635848641395568848e-01
-4.888648912310600281e-02 1.627926707267761230e+00 -5.668336153030395508e-01
5.690596997737884521e-03 1.629257559776306152e+00 -5.710909366607666016e-01
6.356738507747650146e-02 1.625133156776428223e+00 -5.757851600646972656e-01
1.254859864711761475e-01 1.615970849990844727e+00 -5.817471742630004883e-01
1.902090907096862793e-01 1.602773427963256836e+00 -5.907124280929565430e-01
2.564837634563446045e-01 1.586528062820434570e+00 -6.044064164161682129e-01
3.241041302680969238e-01 1.566714644432067871e+00 -6.230531334877014160e-01
3.944853246212005615e-01 1.540475487709045410e+00 -6.445482969284057617e-01
4.691832065582275391e-01 1.504751920700073242e+00 -6.665878295898437500e-01
5.479682683944702148e-01 1.457129955291748047e+00 -6.874967217445373535e-01
6.234700679779052734e-01 1.397773504257202148e+00 -7.081159353256225586e-01
6.865330934524536133e-01 1.327491164207458496e+00 -7.299154996871948242e-01
7.288305163383483887e-01 1.247216582298278809e+00 -7.541794776916503906e-01
7.516678571701049805e-01 1.159352421760559082e+00 -7.800272703170776367e-01
7.625660896301269531e-01 1.067245841026306152e+00 -8.051816821098327637e-01
7.691064476966857910e-01 9.742242097854614258e-01 -8.273473978042602539e-01
7.762908935546875000e-01 8.814662098884582520e-01 -8.445193767547607422e-01
7.851234674453735352e-01 7.868189215660095215e-01 -8.551431894302368164e-01
7.962640523910522461e-01 6.878430843353271484e-01 -8.577029109001159668e-01
8.109825253486633301e-01 5.836751461029052734e-01 -8.515324592590332031e-01
8.329859972000122070e-01 4.797591567039489746e-01 -8.393661975860595703e-01
8.665913343429565430e-01 3.831135034561157227e-01 -8.247879743576049805e-01
9.152711629867553711e-01 2.999906539916992188e-01 -8.110690116882324219e-01
9.726840853691101074e-01 2.277273088693618774e-01 -7.978378534317016602e-01
1.026156663894653320e+00 1.579082608222961426e-01 -7.823733687400817871e-01
1.063027620315551758e+00 8.207799494266510010e-02 -7.619470357894897461e-01
1.077690124511718750e+00 -4.851269535720348358e-03 -7.357680797576904297e-01
1.075472354888916016e+00 -1.027509272098541260e-01 -7.060468196868896484e-01
1.062643527984619141e+00 -2.110430896282196045e-01 -6.752520799636840820e-01
1.044265151023864746e+00 -3.282735645771026611e-01 -6.457024812698364258e-01
1.020569324493408203e+00 -4.494832158088684082e-01 -6.191164255142211914e-01
9.905803203582763672e-01 -5.688373446464538574e-01 -5.970619916915893555e-01
9.535917043685913086e-01 -6.806209683418273926e-01 -5.809713602066040039e-01
9.120153188705444336e-01 -7.805393934249877930e-01 -5.706942081451416016e-01
8.702762722969055176e-01 -8.652118444442749023e-01 -5.650593042373657227e-01
8.327853083610534668e-01 -9.313352704048156738e-01 -5.628796219825744629e-01
8.011120557785034180e-01 -9.793503284454345703e-01 -5.630306601524353027e-01
7.724213004112243652e-01 -1.015500664710998535e+00 -5.644851922988891602e-01
6.982841491699218750e-01 -1.084803581237792969e+00 -6.042715311050415039e-01
6.607161760330200195e-01 -1.120692491531372070e+00 -6.058586239814758301e-01
6.195046901702880859e-01 -1.160234689712524414e+00 -6.071373224258422852e-01
5.763679146766662598e-01 -1.203261852264404297e+00 -6.076250076293945312e-01
5.327491760253906250e-01 -1.249629735946655273e+00 -6.073636412620544434e-01
4.868978261947631836e-01 -1.299475312232971191e+00 -6.124967932701110840e-01
4.350023269653320312e-01 -1.353117585182189941e+00 -6.331042051315307617e-01
3.732748925685882568e-01 -1.410817146301269531e+00 -6.791453957557678223e-01
3.013904094696044922e-01 -1.469156146049499512e+00 -7.494247555732727051e-01
2.243912220001220703e-01 -1.519016027450561523e+00 -8.254561424255371094e-01
1.477815657854080200e-01 -1.550787448883056641e+00 -8.872662782669067383e-01
7.590474188327789307e-02 -1.558143734931945801e+00 -9.201172590255737305e-01
8.461238816380500793e-03 -1.547891139984130859e+00 -9.302130341529846191e-01
-5.600930377840995789e-02 -1.530118465423583984e+00 -9.289933443069458008e-01
-1.188393011689186096e-01 -1.513970255851745605e+00 -9.271362423896789551e-01
-1.798736006021499634e-01 -1.497618198394775391e+00 -9.264707565307617188e-01
-2.379977405071258545e-01 -1.472153902053833008e+00 -9.231159090995788574e-01
-2.920848727226257324e-01 -1.428666830062866211e+00 -9.131492376327514648e-01
-3.412419557571411133e-01 -1.365175366401672363e+00 -8.958413600921630859e-01
-3.849384486675262451e-01 -1.290437936782836914e+00 -8.754135966300964355e-01
-4.226747453212738037e-01 -1.214137554168701172e+00 -8.565129637718200684e-01
-4.548432230949401855e-01 -1.143659591674804688e+00 -8.425613641738891602e-01
-4.854027330875396729e-01 -1.077201724052429199e+00 -8.320803642272949219e-01
-5.192037820816040039e-01 -1.010664224624633789e+00 -8.223656415939331055e-01
-5.606644153594970703e-01 -9.402159452438354492e-01 -8.108570575714111328e-01
-6.091707348823547363e-01 -8.651453256607055664e-01 -7.966570854187011719e-01
-6.608625650405883789e-01 -7.867535352706909180e-01 -7.799421548843383789e-01
-7.118438482284545898e-01 -7.063971757888793945e-01 -7.609239816665649414e-01
-7.593144178390502930e-01 -6.267431974411010742e-01 -7.408939599990844727e-01
-8.021717071533203125e-01 -5.524914860725402832e-01 -7.228158712387084961e-01
-8.394591808319091797e-01 -4.885159730911254883e-01 -7.097975015640258789e-01
-8.707851171493530273e-01 -4.369487166404724121e-01 -7.035832405090332031e-01
-8.980147838592529297e-01 -3.889549374580383301e-01 -7.004644870758056641e-01
-9.235780835151672363e-01 -3.329576253890991211e-01 -6.953694820404052734e-01
-9.498317241668701172e-01 -2.582680881023406982e-01 -6.838687658309936523e-01
-9.782769083976745605e-01 -1.645261347293853760e-01 -6.690024137496948242e-01
-1.009863615036010742e+00 -5.803413689136505127e-02 -6.586290597915649414e-01
-1.045484066009521484e+00 5.481547862291336060e-02 -6.606212854385375977e-01
-1.083082079887390137e+00 1.688843667507171631e-01 -6.788621544837951660e-01
-1.116033554077148438e+00 2.809804677963256836e-01 -7.110515832901000977e-01
-1.137321472167968750e+00 3.880787491798400879e-01 -7.543572187423706055e-01
-1.141657829284667969e+00 4.882629513740539551e-01 -8.050598502159118652e-01
-1.130670309066772461e+00 5.840497016906738281e-01 -8.558899164199829102e-01
-1.107716441154479980e+00 6.790649890899658203e-01 -8.986909389495849609e-01
-1.076194763183593750e+00 7.765147686004638672e-01 -9.260126948356628418e-01
-1.039980888366699219e+00 8.747202157974243164e-01 -9.386088848114013672e-01
-1.003258705139160156e+00 9.688521623611450195e-01 -9.425275325775146484e-01
-9.701503515243530273e-01 1.054087758064270020e+00 -9.438305497169494629e-01
-9.407612085342407227e-01 1.129115819931030273e+00 -9.441092610359191895e-01
-9.089701771736145020e-01 1.198068857192993164e+00 -9.380266666412353516e-01
-8.681210279464721680e-01 1.265548706054687500e+00 -9.196496009826660156e-01
-8.133949637413024902e-01 1.334321022033691406e+00 -8.850901126861572266e-01
-7.473239898681640625e-01 1.399813175201416016e+00 -8.386422395706176758e-01
-6.742775440216064453e-01 1.455616712570190430e+00 -7.866449356079101562e-01
-5.984510183334350586e-01 1.495939493179321289e+00 -7.352864742279052734e-01
-5.220151543617248535e-01 1.522148132324218750e+00 -6.890006065368652344e-01
-4.458359479904174805e-01 1.540228128433227539e+00 -6.510901451110839844e-01
-3.707594275474548340e-01 1.556194067001342773e+00 -6.247951984405517578e-01
-2.978394031524658203e-01 1.573215723037719727e+00 -6.107909679412841797e-01
-2.284499406814575195e-01 1.590051889419555664e+00 -6.057759523391723633e-01
-1.639929562807083130e-01 1.605081796646118164e+00 -6.061066985130310059e-01
-1.051613464951515198e-01 1.616839289665222168e+00 -6.086086034774780273e-01
-4.981503263115882874e-02 1.624475717544555664e+00 -6.119838953018188477e-01
4.895717836916446686e-03 1.627295613288879395e+00 -6.154037117958068848e-01
6.166108697652816772e-02 1.624687194824218750e+00 -6.182330250740051270e-01
1.213209182024002075e-01 1.616995811462402344e+00 -6.220871210098266602e-01
1.835213005542755127e-01 1.605184435844421387e+00 -6.300333142280578613e-01
2.478994280099868774e-01 1.590201020240783691e+00 -6.451210975646972656e-01
3.147554397583007812e-01 1.571457147598266602e+00 -6.678805351257324219e-01
3.854150176048278809e-01 1.545983552932739258e+00 -6.949354410171508789e-01
4.612934887409210205e-01 1.510605812072753906e+00 -7.225743532180786133e-01
5.419733524322509766e-01 1.462884187698364258e+00 -7.479850053787231445e-01
6.197070479393005371e-01 1.403313875198364258e+00 -7.719514369964599609e-01
6.849144101142883301e-01 1.333123922348022461e+00 -7.961571216583251953e-01
7.288657426834106445e-01 1.253599643707275391e+00 -8.221181631088256836e-01
7.527136802673339844e-01 1.166681289672851562e+00 -8.494002819061279297e-01
7.639875411987304688e-01 1.074729204177856445e+00 -8.763115406036376953e-01
7.702839970588684082e-01 9.800893068313598633e-01 -9.011352062225341797e-01
7.768637537956237793e-01 8.838002085685729980e-01 -9.219280481338500977e-01
7.853672504425048828e-01 7.848747968673706055e-01 -9.363951683044433594e-01
7.971232533454895020e-01 6.821511983871459961e-01 -9.422119259834289551e-01
8.137761354446411133e-01 5.757609605789184570e-01 -9.380739927291870117e-01
8.382303714752197266e-01 4.710124135017395020e-01 -9.267604351043701172e-01
8.737058639526367188e-01 3.745055496692657471e-01 -9.120709896087646484e-01
9.226746559143066406e-01 2.921045422554016113e-01 -8.974484205245971680e-01
9.789137840270996094e-01 2.211085408926010132e-01 -8.821845650672912598e-01
1.030590415000915527e+00 1.532908082008361816e-01 -8.628930449485778809e-01
1.065888881683349609e+00 8.037862181663513184e-02 -8.361902236938476562e-01
1.079603672027587891e+00 -3.111069090664386749e-03 -8.015364408493041992e-01
1.076777577400207520e+00 -9.834051877260208130e-02 -7.627987265586853027e-01
1.063334703445434570e+00 -2.060996592044830322e-01 -7.242237329483032227e-01
1.044092416763305664e+00 -3.257296085357666016e-01 -6.894893050193786621e-01
1.019444108009338379e+00 -4.507758021354675293e-01 -6.600003242492675781e-01
9.886759519577026367e-01 -5.733354091644287109e-01 -6.365929245948791504e-01
9.513185620307922363e-01 -6.857973933219909668e-01 -6.199870109558105469e-01
9.097321033477783203e-01 -7.839682698249816895e-01 -6.095467805862426758e-01
8.681035041809082031e-01 -8.658578395843505859e-01 -6.037621498107910156e-01
8.306047320365905762e-01 -9.295639991760253906e-01 -6.011141538619995117e-01
7.987040281295776367e-01 -9.762758612632751465e-01 -6.004223823547363281e-01
7.696783542633056641e-01 -1.011974334716796875e+00 -6.010308265686035156e-01
6.974672675132751465e-01 -1.084100723266601562e+00 -6.381176710128784180e-01
6.602874994277954102e-01 -1.119915246963500977e+00 -6.410303711891174316e-01
6.194398999214172363e-01 -1.159258365631103516e+00 -6.442210674285888672e-01
5.763512253761291504e-01 -1.201933503150939941e+00 -6.466779708862304688e-01
5.322120785713195801e-01 -1.247771263122558594e+00 -6.480107307434082031e-01
4.854644536972045898e-01 -1.296913862228393555e+00 -6.550533771514892578e-01
4.327774941921234131e-01 -1.349704384803771973e+00 -6.793010234832763672e-01
3.708432316780090332e-01 -1.406430482864379883e+00 -7.321156263351440430e-01
2.994983196258544922e-01 -1.463786125183105469e+00 -8.122130632400512695e-01
2.234534025192260742e-01 -1.512896060943603516e+00 -8.987077474594116211e-01
1.478385627269744873e-01 -1.544407248497009277e+00 -9.690282940864562988e-01
7.667382061481475830e-02 -1.552115917205810547e+00 -1.006509304046630859e+00
9.539524093270301819e-03 -1.542420864105224609e+00 -1.018110990524291992e+00
-5.509404838085174561e-02 -1.524872779846191406e+00 -1.016700506210327148e+00
-1.186190992593765259e-01 -1.508117198944091797e+00 -1.014306545257568359e+00
-1.808290332555770874e-01 -1.490302562713623047e+00 -1.013213634490966797e+00
-2.404861599206924438e-01 -1.462803125381469727e+00 -1.009420394897460938e+00
-2.963396310806274414e-01 -1.416995167732238770e+00 -9.988777041435241699e-01
-3.473991453647613525e-01 -1.351170778274536133e+00 -9.809999465942382812e-01
-3.930782079696655273e-01 -1.274339914321899414e+00 -9.605682492256164551e-01
-4.328249096870422363e-01 -1.196435570716857910e+00 -9.428260326385498047e-01
-4.669352769851684570e-01 -1.125021100044250488e+00 -9.314621686935424805e-01
-4.990962147712707520e-01 -1.058186411857604980e+00 -9.239473342895507812e-01
-5.338421463966369629e-01 -9.916521310806274414e-01 -9.161975979804992676e-01
-5.753061175346374512e-01 -9.214358925819396973e-01 -9.043763279914855957e-01
-6.229487657546997070e-01 -8.470028638839721680e-01 -8.875157833099365234e-01
-6.732159852981567383e-01 -7.700424790382385254e-01 -8.664997816085815430e-01
-7.225207090377807617e-01 -6.922932267189025879e-01 -8.422579765319824219e-01
-7.682638168334960938e-01 -6.162215471267700195e-01 -8.166548013687133789e-01
-8.093782663345336914e-01 -5.454233884811401367e-01 -7.930030822753906250e-01
-8.449290990829467773e-01 -4.835908412933349609e-01 -7.747402191162109375e-01
-8.745831847190856934e-01 -4.320873916149139404e-01 -7.637075185775756836e-01
-9.004138708114624023e-01 -3.829608559608459473e-01 -7.553635835647583008e-01
-9.250965714454650879e-01 -3.259298503398895264e-01 -7.435715198516845703e-01
-9.511862993240356445e-01 -2.515197992324829102e-01 -7.230381965637207031e-01
-9.798347949981689453e-01 -1.596381068229675293e-01 -6.982847452163696289e-01
-1.011288881301879883e+00 -5.624400824308395386e-02 -6.801637411117553711e-01
-1.045742869377136230e+00 5.262588709592819214e-02 -6.795315146446228027e-01
-1.081112504005432129e+00 1.623359322547912598e-01 -7.011273503303527832e-01
-1.111783146858215332e+00 2.704244554042816162e-01 -7.402096390724182129e-01
-1.131835937500000000e+00 3.746163547039031982e-01 -7.912210226058959961e-01
-1.136704325675964355e+00 4.735573828220367432e-01 -8.482733368873596191e-01
-1.127228617668151855e+00 5.695739388465881348e-01 -9.041529893875122070e-01
-1.105600833892822266e+00 6.659137010574340820e-01 -9.513158202171325684e-01
-1.074146032333374023e+00 7.654234170913696289e-01 -9.828834533691406250e-01
-1.036731958389282227e+00 8.662828207015991211e-01 -9.997133016586303711e-01
-9.982216358184814453e-01 9.636624455451965332e-01 -1.007654666900634766e+00
-9.634199142456054688e-01 1.052737474441528320e+00 -1.012560248374938965e+00
-9.326500892639160156e-01 1.131969928741455078e+00 -1.015470981597900391e+00
-8.992878198623657227e-01 1.204916238784790039e+00 -1.009970188140869141e+00
-8.561109304428100586e-01 1.275572776794433594e+00 -9.889999628067016602e-01
-7.980323433876037598e-01 1.346195697784423828e+00 -9.481234550476074219e-01
-7.285026311874389648e-01 1.412089109420776367e+00 -8.933918476104736328e-01
-6.531066894531250000e-01 1.466818332672119141e+00 -8.334773778915405273e-01
-5.771629810333251953e-01 1.504606127738952637e+00 -7.767450809478759766e-01
-5.028886795043945312e-01 1.527313590049743652e+00 -7.279813289642333984e-01
-4.305022358894348145e-01 1.541730165481567383e+00 -6.896652579307556152e-01
-3.601888418197631836e-01 1.554674029350280762e+00 -6.641964912414550781e-01
-2.922410368919372559e-01 1.569772243499755859e+00 -6.515851616859436035e-01
-2.271164655685424805e-01 1.585703611373901367e+00 -6.481363773345947266e-01
-1.652871370315551758e-01 1.600722312927246094e+00 -6.498366594314575195e-01
-1.068982630968093872e-01 1.613195657730102539e+00 -6.531839370727539062e-01
-5.079101398587226868e-02 1.621948957443237305e+00 -6.567221879959106445e-01
4.520940128713846207e-03 1.625920772552490234e+00 -6.595066189765930176e-01
6.047784164547920227e-02 1.624161243438720703e+00 -6.608563661575317383e-01
1.179889813065528870e-01 1.617016077041625977e+00 -6.631543636322021484e-01
1.776211261749267578e-01 1.605664849281311035e+00 -6.707605123519897461e-01
2.399398237466812134e-01 1.591273307800292969e+00 -6.880078315734863281e-01
3.057821393013000488e-01 1.573281288146972656e+00 -7.156488299369812012e-01
3.764038383960723877e-01 1.548454523086547852e+00 -7.488853335380554199e-01
4.530982375144958496e-01 1.513328075408935547e+00 -7.824423909187316895e-01
5.352815389633178711e-01 1.465334296226501465e+00 -8.122941255569458008e-01
6.148626804351806641e-01 1.405490636825561523e+00 -8.394114971160888672e-01
6.818742752075195312e-01 1.335711240768432617e+00 -8.660151362419128418e-01
