0.668720 1.249200 -1.544300 
-0.687110 -0.663960 -1.478700 
0.894190 0.966810 -0.239290 
1.019700 0.141320 -1.035100 
-0.407620 -1.111100 -1.616400 
-0.113200 -1.512700 -0.327220 
0.266570 1.537200 -1.027200 
0.978060 -0.516320 -0.913260 
0.768670 0.971330 -0.924490 
0.290940 -1.467200 -0.813450 
-0.409230 -1.221400 -0.480920 
-1.054100 -0.100810 -0.097682 
-0.911520 -0.366310 -1.375500 
-0.610820 -0.778150 -1.592500 
0.752560 1.099400 -0.880140 
0.782500 0.839840 -0.863170 
1.043100 0.007361 -1.605400 
-0.988740 -0.144780 -0.428510 
-0.993400 -0.132990 -0.515240 
0.314180 1.516100 -1.102900 
1.083000 -0.116000 -0.183350 
-1.180800 0.195920 -0.019616 
-0.435700 -1.150700 -1.011500 
-0.638350 -0.818880 -0.899200 
-1.083200 0.917310 -0.040740 
0.878560 0.374790 -0.919210 
-1.063300 0.857140 -0.344290 
0.327910 -1.417400 -0.878710 
0.676060 1.261900 -1.330400 
-1.106800 0.733170 -0.146120 
-0.221880 1.616500 -0.317840 
-0.350590 -1.300800 -1.621100 
-0.418740 -1.197900 -0.614150 
-1.030400 0.969370 -0.100040 
-1.263600 0.414200 -0.002152 
-0.141240 -1.621400 -0.127160 
-1.197700 0.103060 0.010182 
0.735000 1.090000 -1.244600 
0.852510 -1.112500 0.114890 
1.050800 -0.225680 -0.920050 
0.751950 1.081900 -0.478410 
-0.728380 -0.858320 -0.327600 
1.070800 0.022577 -1.019400 
-1.092200 0.100310 -0.900700 
-0.924820 1.160700 -1.032700 
-0.236980 -1.482200 -0.844370 
-0.328800 -1.401100 -0.849060 
0.786470 0.547670 -1.511800 
0.277540 -1.594900 0.075507 
0.329350 -1.435300 -0.037918 
0.599770 1.352300 -1.328600 
0.749330 0.888630 -1.472000 
0.884460 0.289160 -1.488600 
0.320520 -1.462600 -0.364000 
0.854300 0.440250 -0.858260 
-0.030030 -1.464000 -1.558300 
-0.661180 -0.826930 -0.429210 
0.011236 1.628000 -0.524110 
-0.491170 -1.008900 -1.387200 
0.762590 0.686120 -1.472400 
-0.403390 -1.240900 -0.726180 
0.480660 -1.333200 -0.943760 
1.124900 -0.521130 0.034782 
-0.477520 -1.162400 -0.405650 
0.930550 0.650920 -0.292480 
-0.761750 1.402900 -1.028100 
-0.568380 1.516700 -0.226120 
-0.949880 -0.255060 -1.019800 
0.925580 0.235990 -1.395700 
-1.155900 0.314960 -1.106600 
0.866300 0.362860 -1.243300 
0.440710 1.506500 -0.829480 
0.803390 0.953720 -0.327540 
0.604350 1.352700 -1.581200 
-0.550950 -0.971250 -0.675030 
-0.391770 1.697900 0.084826 
0.768490 1.139000 -0.305800 
-0.502200 -1.031600 -1.040900 
0.879540 0.384140 -0.617400 
-0.990270 -0.111790 -0.744470 
0.948520 0.288370 -0.385920 
0.013562 -1.502700 -1.302200 
-1.071900 0.805730 -0.834760 
0.168310 -1.594800 -0.619380 
-1.145800 0.439430 -1.043600 
0.510060 -1.353900 0.115060 
0.843060 0.430190 -1.169800 
-0.286240 1.606300 -0.374220 
1.006800 -0.457140 -0.804610 
-0.261050 1.622400 -0.029812 
0.292040 -1.477900 -0.727960 
0.540140 -1.255300 -0.524880 
-0.218170 -1.437700 -1.438700 
-1.038200 1.041100 -0.039186 
1.047900 -0.052224 -1.498100 
-1.135800 0.491970 -1.114400 
-0.972880 -0.158980 -0.820450 
-1.076700 0.740780 -1.022100 
-0.051622 1.620800 -0.731680 
0.765680 0.901850 -1.143100 
0.779910 0.675500 -1.705000 
-0.524120 1.540900 -0.352980 
0.747550 1.098400 -1.018600 
-1.021100 0.979360 -0.434570 
0.675760 1.336800 -0.942250 
0.790630 0.772810 -0.800570 
1.020500 -0.579310 -0.031957 
0.567530 1.401700 -1.185800 
-0.745260 -0.628820 -1.040400 
-0.813360 -0.504660 -1.221600 
-0.000065 -1.552600 -0.744420 
0.063883 1.622600 -0.743400 
0.965870 -0.644140 -0.127770 
-0.078318 1.741800 0.034685 
0.884790 0.286190 -1.671400 
-0.957310 -0.246530 -0.525060 
-1.164600 0.679700 -0.056790 
0.776220 0.695190 -1.301000 
1.078200 -0.011010 -0.253740 
-0.913610 -0.354920 -1.123000 
1.080900 -0.034824 -0.905160 
0.254430 -1.539900 -0.005122 
-0.231770 -1.493900 -0.526750 
0.839890 -0.939530 -0.037715 
-1.161400 0.504400 -0.527140 
0.072364 1.629800 -0.452700 
0.670160 1.334200 -1.046900 
0.801020 -0.988630 -0.336620 
0.343420 1.636300 -0.132720 
0.925160 -0.775940 -0.333200 
0.775420 -1.053700 -0.781820 
0.674170 -1.124500 -0.745800 
1.060400 -0.228760 -0.418950 
0.903000 -0.779590 -0.715900 
1.053900 0.087768 -0.321920 
0.292660 -1.490600 -0.610640 
0.682480 1.337100 -0.810010 
-1.236500 0.559450 -0.019091 
1.073700 -0.030444 -0.347530 
-0.638250 1.482300 -0.517690 
-0.727920 -0.608660 -1.420300 
0.557790 1.458600 -0.669960 
0.325170 1.529200 -0.944010 
0.840360 -0.951570 -0.796480 
-0.675870 -0.742180 -1.057600 
-1.122800 0.207850 -0.998770 
0.008763 -1.514400 -1.190200 
0.373150 1.523300 -1.359400 
1.031500 0.126500 -0.426600 
1.187900 -0.026578 -0.086879 
-0.165710 1.622600 -0.420450 
0.608200 -1.226100 -0.815530 
-0.960160 1.046800 -1.117500 
0.790550 0.552700 -1.422100 
-1.065100 0.861190 -0.443970 
-0.828700 1.357000 -0.521620 
0.353610 1.551900 -0.421840 
-0.549020 -1.223100 -0.316040 
0.911400 0.316910 -0.850310 
-0.772450 -0.603100 -0.536080 
-1.046800 0.038911 -0.430070 
-0.897890 1.264400 -0.118910 
-0.951490 1.156900 -0.525830 
0.315290 1.576200 -0.228380 
-1.040900 0.921820 -0.505870 
-0.005201 -1.544400 -0.337930 
0.966660 -0.944110 0.094246 
0.828860 0.544380 -1.695700 
0.971910 -0.519420 -1.027800 
-1.090900 0.173710 -0.795780 
1.084300 -0.672680 0.060106 
-1.132300 0.394030 -0.860700 
-1.153100 0.870210 0.003590 
-0.457710 1.552500 -0.804240 
-0.265950 -1.461400 -0.298040 
0.173630 -1.549200 -1.032300 
0.942140 0.250960 -1.046900 
-0.697240 -0.665320 -1.350900 
0.983810 -0.564730 -0.707620 
-0.771880 -0.555090 -1.319800 
-0.634140 -0.833560 -0.809600 
0.981420 -0.715610 -0.005476 
-0.605210 -0.867250 -0.966030 
0.028443 1.623000 -0.195220 
0.808820 0.566660 -1.101700 
0.796470 0.701180 -0.594540 
-0.186740 -1.557200 -0.173290 
0.623080 -1.162600 -0.678170 
0.992380 -0.410370 -1.116000 
0.942260 -0.709780 -0.194990 
0.595880 -1.343900 0.150370 
0.059438 -1.561900 -0.993440 
-0.435180 -1.161100 -0.911450 
-0.439130 -1.158500 -0.538210 
0.857710 1.160700 -0.214480 
0.786450 0.702460 -1.106100 
-0.936180 -0.310940 -1.277400 
1.049100 -0.304090 -0.492490 
-0.385920 -1.283600 -0.421900 
-0.358990 -1.351100 -0.785370 
0.776000 0.891330 -0.467640 
0.825480 0.414780 -1.501900 
-0.690170 1.461900 -0.448450 
0.957080 -0.620770 -0.779230 
-0.087396 1.620900 -0.159620 
0.761400 0.681530 -1.564000 
1.005400 0.187300 -0.355960 
0.258890 -1.512400 -0.103270 
-0.996720 1.041000 -0.522440 
0.268120 1.560400 -1.251800 
-0.759070 -0.560650 -1.529300 
0.675010 -1.129800 -0.135810 
-0.097527 -1.468600 -1.499200 
1.024700 -0.442620 -0.120410 
0.062581 -1.545600 -1.096900 
0.000744 -1.549800 -0.842640 
-1.055200 0.732910 -1.180600 
0.861160 -0.882200 -0.524150 
0.741550 1.023300 -1.333500 
0.550430 -1.257300 -0.752770 
0.610710 -1.249100 0.077902 
0.794290 -0.983310 -0.527650 
0.790880 0.769090 -0.649070 
-0.344180 1.561200 -0.695460 
0.665040 1.354300 -0.333340 
-0.873450 -0.423660 -0.841500 
1.006100 -0.503260 -0.626300 
-1.017500 0.972510 -0.302860 
-1.103100 -0.200970 -0.056392 
-0.987090 0.984950 -1.010200 
0.380200 -1.384700 -0.950450 
0.969050 0.361990 -0.314260 
0.432650 1.533500 -0.241470 
-1.085100 0.153940 -0.408900 
1.039000 -0.355000 -0.408190 
-0.140970 1.629900 -0.074352 
1.073100 -0.102820 -0.959070 
-0.320010 -1.367900 -1.242200 
-0.406820 -1.204200 -1.084700 
0.721030 1.221700 -1.037000 
-0.722200 1.437000 -0.121820 
-1.056800 0.081077 -0.306250 
-0.460190 -1.128000 -0.728260 
-0.808530 -0.511560 -1.459700 
0.876430 0.453620 -0.415090 
-0.662070 1.459800 -0.935730 
-0.976890 1.088000 -0.129260 
-1.106400 0.740500 -0.346880 
-1.123900 -0.076975 -0.026398 
-1.160200 0.441900 -0.449550 
0.712010 -1.077200 -0.530480 
0.791000 0.630720 -1.218200 
-1.098000 0.745940 -0.766260 
-0.206470 1.609200 -0.132820 
0.543940 -1.262500 -0.430930 
-1.149600 0.387490 -0.535490 
0.434130 1.499300 -0.921950 
0.776190 0.895710 -0.553430 
-0.720140 1.423000 -0.869500 
-0.860130 -0.463820 -0.625620 
1.185700 -0.153330 -0.047430 
-0.794940 -0.570560 -0.451890 
-1.104400 0.613570 -1.086100 
1.056500 -0.252740 -0.576790 
0.688800 1.188500 -1.607000 
-0.928670 -0.395510 -0.261190 
0.799300 -0.987830 -0.246320 
0.486040 1.614000 -0.139860 
-0.560700 1.511400 -0.861080 
-0.920640 1.163900 -1.121700 
0.507430 1.419200 -1.266900 
0.215890 -1.580800 -0.495580 
0.759540 1.092400 -0.626230 
-0.591990 -0.905330 -0.727860 
0.409050 1.473100 -1.262100 
-0.311120 -1.356400 -1.362000 
0.778710 1.269200 -0.231350 
1.007500 -0.405380 -0.929480 
-0.972830 1.158300 -0.067259 
0.007767 1.622200 -0.665760 
0.771090 0.904820 -1.032500 
-0.744820 -0.640420 -0.942080 
0.612970 1.423000 -0.600000 
-0.826570 -0.545080 -0.370000 
-0.668160 -0.725790 -1.280000 
-1.008400 -0.060339 -0.678230 
-0.972450 1.044300 -0.930800 
-0.985120 0.918540 -1.370500 
0.799070 0.825380 -0.394110 
-1.139400 0.621030 -0.309700 
-1.159900 0.493290 -0.143960 
0.834800 0.423480 -1.328500 
-0.947240 -0.263380 -0.435530 
0.817930 0.571960 -0.863020 
-0.469040 1.554800 -0.432060 
1.010600 -0.495990 -0.539210 
0.927340 -0.768780 -0.070542 
1.083400 -0.026596 -0.805080 
0.499490 -1.289800 -0.690220 
-0.835950 1.306600 -0.999370 
-0.737980 -0.611910 -1.258100 
-1.017600 0.925260 -0.925740 
-0.870200 1.266000 -1.070600 
0.915000 0.773980 -0.273560 
-0.958290 1.048600 -1.210100 
-0.058366 -1.535500 -0.659960 
-1.112600 0.684780 -0.852620 
0.146410 -1.663300 -0.027070 
-0.640030 -0.792960 -1.134200 
0.754130 1.396100 -0.189130 
1.037100 -0.114530 -1.392800 
0.758010 -1.035200 -0.167960 
-0.046103 1.630600 -0.456210 
-1.064700 0.804640 -0.931390 
1.006200 0.130080 -1.298000 
0.043408 -1.564200 -0.262650 
-1.022200 -0.127350 -1.020000 
0.731380 1.157900 -1.120200 
-0.559960 -0.894870 -1.380000 
-1.140900 0.486850 -1.262500 
-0.571720 -0.932080 -0.597660 
0.181540 -1.588200 -0.089902 
0.633920 -1.177700 -0.031338 
-0.676280 1.464900 -0.232440 
1.068700 -0.047323 -1.114300 
0.462130 1.448600 -1.193000 
-1.006100 -0.177340 -1.091600 
-1.082500 0.600200 -1.334400 
0.540780 -1.275300 0.029318 
0.891580 0.582130 -0.338520 
0.446370 1.510400 -0.740450 
1.014200 -0.487280 -0.451500 
-1.084500 0.803910 -0.543490 
-1.051700 0.059159 -0.196420 
0.973650 -0.616550 -0.620010 
-1.045300 -0.019680 -0.137190 
0.198230 -1.574500 -0.245890 
-0.536280 -0.981670 -0.971080 
0.688300 1.271900 -1.211000 
-1.066100 0.051117 -0.797620 
0.967800 -0.658890 -0.323520 
0.372970 1.505100 -1.013400 
0.745980 1.019600 -1.461800 
-0.582970 1.515200 -0.410250 
-0.871870 -0.437860 -0.756920 
-0.274880 1.601100 -0.217320 
-0.497290 -1.014700 -1.263700 
1.056800 -0.217920 -0.821670 
1.005200 0.172050 -0.497790 
-1.118700 0.148560 -0.072245 
-0.510200 -1.036300 -0.622030 
0.933620 -0.675810 -0.840790 
-0.982530 1.044200 -0.805640 
0.212610 1.560600 -1.105900 
-0.172310 -1.511500 -0.246770 
0.284730 -1.509800 -0.301690 
1.023600 -0.390140 -0.231970 
0.187600 -1.517100 -1.397300 
-0.899450 1.265100 -0.515840 
0.114600 -1.590600 -0.740150 
-0.935940 1.156300 -0.794150 
-0.943260 1.299800 -0.017931 
1.025400 -0.406070 -0.324750 
-0.462880 1.531900 -0.694450 
0.790890 0.815750 -1.701800 
-1.126600 0.685210 -0.536390 
0.772100 0.970800 -0.824560 
-0.606030 -0.856340 -1.067200 
0.806350 -0.993590 -0.701030 
-0.286990 1.578600 -0.605650 
-0.226440 1.586800 -0.682440 
-0.170460 1.610100 -0.888070 
1.055900 0.012563 -1.238500 
0.055181 -1.577800 -0.665000 
0.900210 -0.901540 0.024307 
-0.778900 -0.566570 -1.096000 
-1.123500 0.685790 -0.631280 
-0.138150 1.680600 0.007202 
0.824860 1.021100 -0.276210 
0.500090 -1.308300 -0.350000 
1.046100 -0.271010 -0.303670 
-1.108900 0.743480 -0.444680 
-0.506180 1.536700 -0.168170 
-0.742080 -0.654110 -0.850120 
-0.887470 -0.404670 -1.198000 
-0.685460 1.467200 -0.330040 
-0.349000 1.588500 -0.431810 
-1.024800 0.721180 -1.369800 
0.173300 -1.570800 -0.904020 
0.831540 0.503960 -0.925540 
0.882020 0.389020 -0.482710 
-0.224190 -1.487300 -0.436100 
1.041700 -0.324150 -0.648360 
-1.141900 0.564930 -0.816470 
-0.868760 1.315800 -0.439910 
0.081098 1.619400 -0.263040 
0.992920 0.121660 -1.637900 
0.698630 1.199400 -1.473400 
-1.144900 0.363700 -0.152130 
0.177160 1.600600 -0.702880 
-0.819790 1.362100 -0.126920 
0.409600 -1.358400 -0.695840 
-0.797400 1.342000 -0.904250 
0.124060 1.615300 -0.623140 
0.462490 1.457300 -1.462100 
1.115300 -0.441560 0.003656 
-0.328110 1.586700 -0.140820 
1.140800 -0.294020 -0.028741 
-0.922950 -0.599850 -0.232230 
0.175650 -1.531200 -1.130000 
-0.614230 1.493400 -0.115990 
-0.356010 -1.319000 -1.164000 
-0.593860 -0.906960 -0.501340 
0.755550 -1.031400 -0.593840 
-0.566200 -1.136700 -0.344290 
-0.948040 1.157500 -0.615450 
1.170300 0.086219 -0.131100 
-1.025500 0.925730 -0.829490 
-1.080800 0.804990 -0.640870 
-0.382890 1.621800 0.022927 
0.664910 1.495000 -0.173710 
-0.383540 -1.271200 -1.016500 
1.006500 0.255160 -0.298760 
-0.394350 1.574500 -0.208360 
0.429190 -1.351600 -0.038533 
0.827820 0.501270 -1.027300 
-0.767820 1.381800 -0.790660 
-1.079500 0.791920 -0.211490 
-0.809120 -0.547620 -0.796430 
0.842750 0.573030 -0.417870 
0.753350 1.032900 -1.097700 
-0.980260 -0.159970 -0.926360 
-1.140300 0.444920 -0.957820 
-0.421520 -1.121300 -1.436800 
0.750050 0.951310 -1.557000 
-0.660790 -0.792660 -0.721860 
-0.980830 -0.457270 -0.191930 
-1.052500 0.865780 -0.769840 
0.795290 -0.985020 -0.103250 
0.756240 1.098200 -0.781720 
-0.467980 -1.365300 -0.267640 
-0.527510 1.526800 -0.504220 
0.962940 0.178320 -1.472900 
-0.730830 -0.673700 -0.500190 
0.201160 1.606400 -0.210510 
-0.977230 0.986300 -1.293700 
-0.847960 -0.456730 -1.089300 
1.043300 -0.114890 -1.279000 
-0.631670 -0.834290 -0.544580 
-0.529390 -1.016600 -0.501470 
-0.386080 -1.175500 -1.528300 
0.985780 -0.604660 -0.401700 
-1.137500 0.325880 -0.456250 
0.452120 1.513100 -0.654610 
0.248420 1.585000 -0.303720 
0.183500 1.610000 -0.550330 
-0.235420 -1.470600 -1.016300 
-0.911890 1.162400 -1.210400 
0.021349 -1.501000 -1.494700 
-0.847230 -0.598000 -0.298050 
-0.288430 -1.443900 -0.914820 
-0.328440 -1.388300 -1.019700 
-1.015500 0.789260 -1.313200 
0.596270 1.424500 -0.842180 
-0.204640 1.732200 0.062765 
0.751840 0.892000 -1.385000 
-0.063020 -1.532200 -0.254970 
0.005194 1.627300 -0.809480 
-0.920490 1.203200 -0.184470 
1.073400 -0.299990 -0.097587 
0.802960 0.638330 -0.929530 
-0.899290 -0.359170 -0.898970 
-1.015800 -0.055825 -0.230000 
-0.739270 1.427600 -0.519470 
0.719620 -1.083700 -0.064796 
-0.117590 -1.520000 -0.733400 
-0.860970 1.270600 -1.178900 
-1.055000 0.056860 -0.709150 
-0.976850 -0.175480 -0.623320 
0.692330 1.332200 -0.624940 
1.084100 -0.050402 -0.472640 
0.545370 -1.269200 -0.279680 
0.729260 1.223000 -0.831420 
1.014600 -0.349780 -0.994630 
0.527370 1.466600 -0.323060 
-0.342530 1.589500 -0.824100 
0.719870 1.148100 -1.316100 
-0.676440 -0.664530 -1.569000 
0.689560 1.311300 -0.424260 
0.831740 -0.936670 -0.627330 
0.721040 1.139100 -1.531500 
0.116170 -1.585500 -0.836830 
-0.676160 1.491100 -0.031007 
-0.976830 1.097900 -0.448430 
-1.057700 1.122800 0.004376 
-0.688000 1.451400 -0.632310 
0.496330 -1.462900 0.180340 
-1.036000 0.909550 -0.239330 
-1.136100 0.625820 -0.744350 
0.757870 0.815650 -1.611400 
0.933230 -0.724470 -0.607590 
-1.238100 0.692880 0.007351 
-0.851120 -0.719440 -0.269050 
-0.732270 1.420000 -0.708570 
-0.791560 -0.579450 -0.634980 
-0.288620 1.593100 -0.502430 
0.109700 -1.596100 -0.550750 
0.999370 -0.412120 -1.210400 
-0.036756 1.625500 -0.271120 
0.995180 -0.522520 -1.196700 
-0.543300 -0.890210 -1.606200 
0.336070 -1.411000 -1.026700 
1.076300 0.041830 -0.750600 
0.389940 1.581400 -0.183020 
0.788790 0.763320 -0.507310 
-1.160600 0.500770 -0.381520 
-1.238500 0.256470 0.006236 
0.673460 -1.128300 -0.452660 
0.291840 -1.450900 -0.951490 
-1.150500 0.616940 -0.118280 
-0.774680 1.398500 -0.217900 
0.496070 -1.291000 -0.600380 
-1.154300 0.497980 -0.293490 
-0.359620 -1.337200 -0.949380 
-1.095000 0.197280 -0.311150 
0.795740 0.706200 -0.864840 
0.721050 -1.086500 -0.232850 
-0.781190 1.388500 -0.619700 
0.386730 -1.549700 0.161130 
-0.044130 -1.493100 -1.400900 
-0.527810 -1.012700 -0.757450 
0.045629 1.739800 -0.002398 
0.338710 1.550600 -0.740180 
-0.939820 -0.253260 -0.900210 
0.634010 1.303100 -1.436200 
-0.116820 -1.515400 -0.831820 
-0.519900 -0.949270 -1.471100 
-0.022130 1.636600 -0.106170 
0.780440 0.900280 -0.641660 
0.692990 1.325100 -0.537370 
-0.578940 1.637300 0.079233 
0.895670 -0.831240 -0.433390 
-1.067500 0.110930 -0.523690 
1.109800 -0.164190 -0.107720 
-0.910910 -0.360460 -0.548790 
1.060900 -0.208110 -0.724560 
0.666360 1.416500 -0.229180 
-1.031000 0.863370 -1.027400 
-1.153800 0.565640 -0.605220 
0.359540 1.544800 -0.320730 
-0.913630 -0.480180 -0.255520 
-0.101600 1.629000 -0.346290 
-1.042200 0.798660 -1.123300 
0.855300 0.348750 -1.586700 
-0.377410 -1.484100 -0.203930 
-0.534600 -0.962210 -1.182900 
-0.351870 -1.417200 -0.276500 
-0.232290 -1.460800 -1.124900 
-0.751960 1.499400 0.016942 
0.167540 1.724300 -0.044996 
-1.011200 -0.138800 -0.172670 
0.541010 1.454400 -0.916400 
-1.144200 0.449480 -0.786560 
0.367850 -1.388400 -0.785240 
0.585470 1.419300 -1.007700 
0.972950 0.480720 -0.295130 
-1.116900 0.229500 -0.126260 
0.233470 -1.501600 -1.299800 
0.999070 -0.515140 -0.162780 
-0.739820 -0.753930 -0.357020 
-0.842170 -0.486050 -0.527760 
-1.106500 0.225130 -0.906130 
-1.121600 0.341770 -0.793260 
-0.678540 -0.758330 -0.612750 
0.774360 -1.046700 0.002378 
1.066000 -0.151450 -0.342690 
-0.998760 -0.101830 -0.313440 
0.718280 -1.263500 0.143840 
0.747130 1.150300 -0.560340 
-0.860480 1.309200 -0.626840 
0.617010 1.405900 -0.431880 
-1.126300 0.797720 -0.047861 
0.333530 1.543400 -0.825520 
1.085100 0.228300 -0.221150 
0.931790 0.241650 -1.272700 
-1.097000 0.008396 -0.056421 
0.361920 1.495800 -1.181300 
0.775450 0.767520 -1.182800 
-0.635470 -0.909740 -0.397820 
-1.140600 0.393780 -0.697270 
0.434810 -1.371100 0.057949 
-1.155300 0.447410 -0.617740 
0.405270 -1.384300 -0.338230 
-0.170860 -1.476100 -1.193400 
-1.065000 0.848760 -0.139280 
-0.364440 -1.237600 -1.443200 
0.946650 -0.672320 -0.690890 
0.579360 -1.206900 -0.606280 
-0.675010 -0.753400 -0.957580 
0.947540 -0.721660 -0.406410 
-0.928970 1.212100 -0.450080 
-1.018300 1.265100 0.016750 
-0.946830 1.146700 -0.252810 
0.936120 0.275730 -0.492060 
0.510220 1.487200 -0.592900 
-0.305040 -1.417100 -0.423160 
-0.407320 1.578300 -0.364990 
-0.850120 -0.453160 -1.307200 
0.799090 0.704720 -0.710120 
0.075425 -1.513700 -1.386800 
-0.167910 1.602300 -0.744960 
-0.998720 1.035500 -0.362600 
0.095342 1.640500 -0.123310 
-0.288180 -1.452300 -0.781750 
-0.460410 1.561200 -0.278620 
0.590380 -1.223400 -0.364880 
-0.942470 1.107500 -1.275000 
-0.396850 -1.184000 -1.355300 
0.049732 -1.573900 -0.415840 
0.462870 1.503100 -0.437480 
1.075700 -0.136230 -0.646480 
-0.812040 -0.533200 -0.884400 
-0.297980 -1.548700 -0.166630 
0.936000 -0.741700 -0.999560 
-0.344870 -1.366200 -0.544880 
-1.148200 0.378170 -0.373360 
0.735380 -1.182300 0.101600 
-0.467630 -1.082900 -1.114700 
0.291300 -1.500700 -0.489790 
0.207550 -1.580700 -0.339730 
-1.128000 0.313110 -0.299370 
-0.501030 -1.046600 -0.908310 
0.463820 -1.328300 -0.772580 
-0.023894 -1.651700 -0.100450 
0.761480 0.758630 -1.386400 
-0.682670 1.456000 -0.788320 
-1.103900 0.682090 -0.947490 
0.739510 1.161900 -0.940790 
-0.433670 -1.135700 -1.192500 
0.766240 1.015700 -0.398180 
0.831140 -0.934280 -0.186670 
0.974640 0.219290 -0.566250 
1.033200 -0.175240 -1.218000 
0.730970 1.205200 -0.495480 
-0.225990 -1.447800 -1.277300 
-0.002186 1.580000 -0.996270 
0.872170 0.417320 -1.684700 
0.837490 0.507590 -0.516560 
0.856020 0.444120 -0.678030 
0.405330 1.536600 -0.521980 
0.981170 0.215600 -0.653640 
0.946510 0.266100 -0.721010 
-0.962330 -0.263100 -1.144500 
-1.065900 0.665320 -1.262400 
0.649120 1.384300 -0.733620 
1.085100 0.000954 -0.549710 
-0.577520 1.505200 -0.767540 
0.807480 0.639210 -0.801420 
0.947940 -0.625490 -0.935270 
0.754470 0.964130 -1.217300 
1.081900 -0.082413 -0.726560 
-0.305780 -1.348800 -1.488300 
-1.023100 -0.030210 -0.374820 
0.335050 -1.468100 0.061438 
-0.928870 1.155900 -0.883590 
0.895450 -0.828280 -0.239440 
-0.935010 1.388500 0.019379 
0.633960 -1.179200 -0.210830 
-0.406120 -1.230600 -0.817330 
0.982520 0.198600 -0.971570 
0.859590 -1.032800 0.077766 
1.012400 -0.235640 -1.330700 
-0.110370 1.614800 -0.814150 
0.345130 1.557500 -0.630510 
0.962070 0.174940 -1.559600 
-0.952170 1.151800 -0.345000 
1.031500 -0.815200 0.079585 
0.425340 -1.360900 -0.859080 
0.780440 0.904490 -0.764290 
0.453500 -1.341500 -0.427500 
0.408050 -1.463100 0.134300 
-1.163300 0.283250 -0.064606 
-0.783240 1.401600 -0.320740 
-0.268290 -1.396000 -1.572300 
0.558730 1.487500 -0.227220 
-1.056300 -0.018340 -0.918910 
-1.015400 0.983150 -0.596190 
1.021800 -0.292790 -1.058800 
0.407090 -1.364900 -0.592360 
-0.468320 -1.252000 -0.340710 
-0.942780 -0.285110 -0.634560 
-0.787290 1.400300 -0.421540 
0.243420 1.594100 -0.426190 
0.270220 -1.478500 -1.202400 
-0.149540 -1.430800 -1.596100 
-0.838430 1.298700 -0.839600 
0.340740 -1.426300 -0.140360 
0.437430 -1.349000 -0.134410 
-0.055806 -1.524300 -0.922740 
-0.112720 -1.496300 -1.109700 
0.869100 0.703630 -0.326460 
0.851920 0.829620 -0.306300 
0.521340 -1.302400 -0.845670 
-1.085200 0.177810 -0.703990 
1.053600 -0.170520 -1.043100 
-0.813100 -0.521080 -0.978090 
-0.499670 1.544500 -0.070423 
-0.406130 -1.325100 -0.329140 
-1.148500 0.432350 -0.222520 
0.796930 0.557370 -1.336600 
0.273660 -1.508500 -0.203720 
1.048500 0.080975 -1.099700 
-0.049505 1.620100 -0.593640 
-0.382420 1.580600 -0.065914 
-0.448540 -1.060500 -1.521900 
-0.582330 1.498300 -0.625610 
0.736210 1.217500 -0.642890 
1.023100 -0.408930 -1.335200 
0.741830 1.138700 -0.414880 
1.047800 0.115890 -0.574110 
-0.109150 1.610100 -0.660530 
-0.961870 -0.218780 -0.356730 
1.077200 0.107900 -0.237650 
0.964470 -0.667510 -0.484080 
-1.055600 -0.333450 -0.118190 
-0.887200 -0.421460 -0.346820 
0.692990 1.120900 -1.666800 
0.980920 -0.588110 -0.232380 
-0.868340 1.256300 -0.932100 
0.868860 -0.901820 -0.865030 
1.021500 0.160320 -0.705480 
1.079900 -0.123860 -0.551020 
0.018499 1.629500 -0.337040 
0.567470 1.451000 -0.500080 
0.775770 0.967760 -0.697940 
1.034400 -0.376090 -0.561860 
-1.144800 0.623690 -0.403560 
-0.980770 -0.178660 -0.260600 
1.053900 0.088227 -0.958350 
-0.915430 -0.340500 -0.381910 
-1.111900 0.287940 -0.703600 
-0.002575 -1.558200 -0.585490 
0.915880 -0.777340 -0.529520 
1.004100 -0.291790 -1.430600 
-0.896670 -0.394000 -0.677210 
-1.038400 -0.239930 -0.119970 
-1.140900 0.504760 -0.877880 
-0.858540 1.311000 -0.222870 
-0.177470 -1.497700 -0.941050 
-0.850080 1.303300 -0.733150 
-0.567620 -1.006900 -0.419630 
0.227980 1.579900 -0.787470 
-0.941730 -0.307550 -0.287000 
-0.408990 1.559000 -0.532660 
-0.020310 -1.586100 -0.160520 
-0.167880 1.603500 -0.595220 
0.107190 1.593800 -1.094500 
-0.967470 1.101600 -0.695070 
0.760030 -1.036000 -0.413310 
0.295440 1.579500 -0.525870 
-0.922690 -0.322700 -0.749500 
-0.722660 -0.690980 -0.656550 
0.882080 0.381530 -0.732350 
0.869060 -0.884990 -0.319790 
1.086300 -0.010051 -0.643810 
0.733290 1.221300 -0.735270 
1.011100 -0.170330 -1.474800 
1.022300 0.148070 -0.897700 
-0.372670 -1.308600 -0.606990 
-0.877050 -0.405310 -1.026700 
-1.034400 0.924680 -0.668330 
-1.004400 0.856710 -1.250400 
0.526340 1.440000 -1.084800 
-1.028100 -0.012565 -0.521350 
0.892090 -0.824870 -0.137090 
0.916950 0.227570 -1.614000 
0.913730 -0.793940 -0.929940 
-0.701620 -0.725730 -0.771500 
-1.118800 0.262440 -0.381030 
-0.327050 -1.412300 -0.689380 
0.125470 -1.527200 -1.205200 
-0.566540 -0.900090 -1.256900 
-1.198100 0.422250 -0.057854 
-0.465340 -1.115700 -0.816550 
0.814820 0.478600 -1.600500 
0.901900 0.304620 -1.161600 
1.116700 -0.044010 -0.147620 
0.835610 0.506590 -0.798800 
0.494700 -1.310800 -0.211030 
0.808510 0.634020 -0.515190 
0.999370 -0.533460 -0.311120 
-0.466730 1.534200 -0.596560 
-0.003788 -1.557800 -0.492200 
-0.236860 -1.489400 -0.713750 
0.221660 -1.556700 -0.805240 
0.291240 1.693200 -0.087821 
-0.118400 -1.528300 -0.543820 
0.782150 0.771690 -1.034500 
-0.614050 -0.864780 -0.646410 
1.055300 0.096559 -0.824320 
0.215760 1.643600 -0.125590 
1.029000 -0.344030 -0.867860 
0.342250 -1.411500 -1.117900 
0.090047 -1.586900 -0.183430 
-0.706760 1.575800 0.059806 
0.257950 -1.503600 -0.884500 
-0.661180 -0.972110 -0.343060 
0.218630 1.561800 -0.955550 
0.503230 1.417700 -1.385000 
-0.377900 -1.252500 -1.237800 
0.834040 -0.935800 -0.416580 
0.361180 -1.416500 -0.425440 
-0.835630 -0.508110 -0.697240 
0.818260 0.493550 -1.251300 
-0.154880 1.617900 -0.239150 
0.552430 1.387300 -1.463100 
0.400180 -1.387800 -0.246450 
1.011700 -0.295050 -1.158700 
0.885130 -0.830590 -0.616560 
1.057700 -0.244800 -0.175730 
0.479260 1.469200 -1.019300 
0.762230 0.942270 -1.697500 
0.874280 0.369960 -1.055900 
-1.084300 0.175740 -0.612640 
0.110270 1.589900 -0.984850 
-0.054593 -1.517500 -1.026500 
0.906420 0.327860 -0.555750 
1.034700 0.071281 -1.368400 
0.764420 0.831230 -1.261800 
-1.154200 0.431010 -1.186400 
-0.108010 -1.483700 -1.259700 
0.551170 1.457800 -0.759280 
0.763470 1.023600 -0.542560 
-1.127000 0.337000 -0.925140 
-0.114680 -1.520000 -0.420280 
-0.565720 -0.946960 -0.814200 
-0.958540 -0.217640 -0.716450 
-1.047400 0.055970 -0.600210 
0.976020 -0.576750 -1.115400 
-0.642130 -1.062200 -0.327810 
0.810130 0.697550 -0.433640 
-0.846810 1.395500 -0.026788 
0.957780 -0.629960 -1.036700 
-1.016900 -0.059859 -0.816680 
-0.178670 -1.515000 -0.613540 
-1.128900 0.559840 -0.968500 
0.533730 -1.265000 -0.058442 
0.724780 1.252600 -0.320440 
-1.119400 0.677740 -0.247850 
0.807590 0.637270 -0.652910 
-0.895370 -0.382280 -0.456280 
0.117710 1.611300 -0.826840 
0.058524 1.614100 -0.893490 
1.056700 -0.196830 -0.259040 
-1.095200 0.608020 -1.179200 
-0.625610 -0.779180 -1.411800 
-0.383290 -1.283400 -0.881690 
-1.104800 0.217990 -0.478300 
-0.992400 1.026600 -0.198220 
0.785930 0.773050 -0.930620 
0.977960 0.192600 -1.113500 
-0.500050 -1.089000 -0.453730 
-1.010000 0.985090 -0.724250 
-0.284140 -1.461300 -0.593150 
-0.898020 1.262900 -0.320300 
0.665100 -1.118500 -0.591250 
-1.134600 1.003400 0.025318 
1.012600 0.134750 -1.181500 
0.722510 -1.087600 -0.322810 
1.008100 -0.296310 -1.260300 
0.908280 0.311430 -0.982070 
-0.763640 -0.669680 -0.380540 
-0.505950 1.601400 0.039725 
1.035300 0.069623 -1.493100 
-0.709410 -0.678710 -1.120400 
-1.132300 0.336770 -0.611430 
-0.768640 -0.618930 -0.726350 
1.037700 -0.334070 -0.742140 
-0.991030 0.921890 -1.180600 
0.101060 -1.584600 -0.335310 
0.984310 0.208760 -0.775320 
-0.476370 -1.001300 -1.612000 
0.713820 -1.076800 -0.660440 
0.134550 1.615700 -0.332110 
-0.166060 -1.468700 -1.349300 
0.901770 -0.785420 -0.826010 
0.624890 -1.167600 -0.525110 
0.584700 -1.221300 -0.138680 
0.262860 -1.479100 -1.116300 
0.257950 -1.484500 -1.029500 
0.221590 -1.567000 -0.712710 
0.130830 -1.516600 -1.311000 
-0.584700 -0.835050 -1.507000 
-0.569370 -0.932890 -0.904870 
-0.693120 -0.748140 -0.463940 
-0.986730 -0.368180 -0.184820 
-0.982740 -0.275280 -0.197830 
-1.009100 -0.066475 -0.589170 
-1.088300 0.182970 -0.213580 
-1.153800 0.506620 -0.701860 
-1.146800 0.557500 -0.210790 
-1.000700 0.923260 -1.085300 
-0.918860 1.210900 -0.680820 
-0.627330 1.550500 0.023807 
-0.341150 1.593300 -0.279130 
-0.227360 1.604900 -0.822460 
-0.167600 1.613900 -0.508400 
-0.054742 1.605900 -0.889330 
0.419550 1.479500 -1.084700 
0.729800 1.074300 -1.587900 
0.737340 1.006200 -1.642700 
0.235680 1.591500 -0.628130 
1.014500 -0.451580 -0.715430 
0.786470 0.837110 -0.705680 
0.086532 -1.625200 -0.101700 
0.799040 0.636460 -1.032200 
0.820780 0.572700 -0.740140 
0.819070 0.570990 -0.597370 
0.856490 0.354850 -1.408100 
0.945320 0.256570 -0.909910 
1.048700 0.330580 -0.251860 
0.361870 -1.409400 -0.513530 
0.863160 -0.889750 -0.713760 
