0.120230 1.539200 -1.146600 
0.884930 -0.490680 -0.769370 
0.766700 0.353700 -0.615390 
0.957980 0.057045 -1.452100 
1.016000 0.050343 -0.234970 
-0.553510 -0.652430 -1.532500 
0.927530 -0.350450 -0.513530 
-0.807250 -0.302790 -0.600650 
0.221930 -1.522000 -0.645210 
0.722180 0.857160 -1.702000 
-0.860690 1.099900 -0.382250 
0.667620 0.733990 -1.102400 
-0.686130 1.379800 -0.107740 
-0.180280 1.555900 -0.893170 
-0.713680 -0.479020 -0.874090 
0.703010 0.457840 -1.293400 
0.821820 -0.781510 -0.094002 
-0.929750 0.018925 -0.642030 
0.794470 -0.926290 -0.763840 
-0.884830 1.443700 0.025875 
0.952460 -0.462990 -1.286300 
0.775290 -0.892370 -0.044292 
-0.989500 0.241880 -0.688820 
-0.115980 -1.381600 -1.562600 
0.646180 1.108200 -1.447500 
-0.739140 -0.441400 -0.764210 
0.983550 -0.354540 -0.095661 
-0.840440 -0.610540 -0.266040 
0.795100 0.287470 -0.769540 
-0.241340 -1.363400 -1.626200 
-0.974400 0.772310 -0.765990 
-0.761250 1.250700 -0.874070 
0.945280 -0.119400 -1.280600 
-0.454550 -0.912330 -0.613820 
0.247720 -1.389200 -0.783540 
0.657150 1.117400 -0.794600 
-0.307870 -1.126500 -1.192700 
-0.144590 -1.412900 -1.195300 
0.324890 1.486500 -1.362100 
-0.078318 1.741800 0.034685 
0.680150 0.520960 -1.384400 
-0.705360 1.333600 -0.821670 
0.974330 0.001484 -1.277300 
0.659080 1.047400 -1.547200 
0.427050 -1.252000 0.016140 
-0.362860 1.477500 -0.165200 
0.219920 -1.503000 -0.772770 
-0.254140 -1.373300 -1.207800 
0.938690 -0.353280 -1.389500 
0.972950 0.480720 -0.295130 
-0.910940 0.685520 -1.370100 
-0.856060 -0.166350 -0.819980 
0.903810 -0.164850 -1.515200 
0.314430 -1.376900 -1.190500 
-0.868580 -0.128490 -0.713010 
-0.971790 -0.214640 -0.135140 
0.359160 -1.260300 -0.125870 
-0.210790 -1.410600 -1.088300 
0.911830 0.108520 -1.297400 
-1.068400 0.660850 -0.105840 
-0.487450 1.432500 -0.514160 
-0.191150 1.635400 0.032831 
0.824180 0.238750 -0.605150 
0.664210 0.860810 -0.644360 
0.215020 -1.474200 -0.929550 
-0.965350 0.941530 -0.086867 
0.368530 1.433300 -0.412660 
0.587020 -1.047100 -0.506590 
0.375500 -1.244200 -0.497950 
-0.295290 -1.255900 -1.201700 
-0.668300 1.411000 -0.989550 
-1.001500 0.711580 -0.386560 
0.282490 -1.403900 0.038283 
-0.427540 -0.990610 -0.531020 
-0.897830 0.827050 -1.256800 
-0.906480 -0.091734 -0.249740 
-0.930280 0.068723 -0.471810 
0.961540 0.068186 -1.133900 
1.168100 -0.293860 -0.011889 
0.374360 -1.252400 -0.382570 
1.106100 -0.597570 0.048120 
-0.292570 -1.331100 -1.090900 
-0.305480 -1.184500 -0.548920 
0.133060 -1.509700 -1.040200 
-0.153970 -1.436500 -0.729970 
0.329480 -1.264700 -0.615110 
0.910470 -0.357960 -1.262200 
-1.201800 0.816860 0.017813 
0.906070 -0.488230 -0.180340 
-0.444950 -0.905570 -1.064800 
0.222000 -1.454700 -0.104040 
0.263060 1.482800 -0.504400 
0.815890 0.198030 -1.440000 
0.992950 0.016515 -1.016100 
0.993870 -0.055745 -0.513260 
-0.145230 -1.427200 -0.335140 
0.891800 -0.500650 -0.309490 
-0.642890 1.609000 0.070689 
0.671260 0.799910 -0.746180 
0.331910 1.420500 -0.886170 
-0.808110 1.347900 -0.040869 
-0.554820 1.539400 0.045172 
0.664120 0.921610 -1.563400 
0.908570 0.837460 -0.261940 
-0.307050 -1.254300 -0.459180 
0.507290 1.368300 -1.555900 
0.251080 -1.490000 -0.481780 
0.230870 -1.492900 -0.248940 
1.020800 0.379060 -0.270770 
0.917540 0.173220 -0.371950 
-0.475940 1.477500 -0.046819 
0.742900 -1.017900 0.040503 
0.015241 1.524500 -1.050500 
-0.894820 1.089300 -1.313700 
0.188500 1.484900 -0.811470 
0.601220 1.218000 -1.464800 
-1.109600 1.067900 0.024118 
0.899270 0.706310 -0.289400 
-0.579160 -0.696990 -0.912160 
-0.840860 1.216800 -0.138280 
-1.024200 0.661420 -0.786440 
-0.975690 -0.457420 -0.185890 
0.909130 -0.469240 -0.524410 
0.111300 -1.531600 -0.411150 
0.765480 0.342800 -0.906870 
0.804680 -0.780650 -0.365640 
-1.101300 0.548070 -0.109270 
-0.248730 -1.411900 -0.291060 
0.941310 0.591950 -0.297780 
-0.860200 -0.331500 -1.378900 
0.724620 0.476240 -0.620690 
-0.389730 -1.009700 -0.642240 
0.921930 -0.276700 -0.927020 
0.677320 -0.971620 -0.351140 
0.683170 0.599190 -1.138000 
-0.515650 1.661100 0.084646 
0.754130 1.396100 -0.189130 
-0.216870 1.501500 -0.725940 
-0.864810 1.110100 -0.637700 
-1.103100 -0.200970 -0.056392 
-0.847140 -0.192990 -0.601520 
-0.250540 1.501800 -0.173760 
0.809210 0.308600 -0.490380 
0.801930 -0.786290 -0.517520 
0.810720 -1.163500 0.123040 
-0.083258 -1.411900 -1.070500 
0.986790 0.047105 -0.637970 
-0.920920 1.199400 -0.033234 
-0.821210 1.166700 -0.919050 
-0.877250 -0.095489 -0.540350 
-1.034900 0.517060 -1.307700 
0.638490 1.050200 -1.286000 
0.923120 -0.329250 -0.380070 
0.865420 0.455600 -0.342560 
0.732690 0.584160 -1.706300 
0.367580 1.392600 -1.019900 
0.900990 -0.481350 -0.648060 
0.249710 -1.417700 -0.603570 
0.645280 1.282300 -0.576130 
0.769440 0.806480 -0.331970 
-1.006100 -0.011031 -0.916220 
-0.214270 -1.418500 -0.941080 
0.870970 -0.805630 0.006801 
-0.152440 -1.443100 -0.598260 
0.007940 -1.388900 -1.562900 
-0.774410 -0.369120 -0.864120 
-0.769310 1.537300 0.047739 
0.611750 -1.364400 0.167270 
-0.228940 -1.348400 -1.494500 
-0.577710 1.455300 -0.883130 
0.387350 1.376900 -1.277500 
-1.093400 0.426350 -0.124540 
-0.211150 1.488100 -0.592420 
0.600980 -1.128100 -0.793140 
-0.310530 -1.157100 -0.833730 
0.251300 -1.439100 -0.347000 
0.817880 0.191870 -1.662100 
0.894190 0.966810 -0.239290 
-0.984940 0.206980 -0.246200 
-0.829030 1.161200 -0.797760 
0.610080 1.538800 -0.164120 
-0.310860 -1.145000 -0.970020 
-1.261800 0.561130 -0.001617 
0.945240 -0.209520 -0.389710 
-0.417470 -0.878680 -1.609500 
-0.008421 -1.416600 -1.446100 
-0.332450 1.540200 -0.822690 
-0.164150 -1.471200 -0.213950 
1.130900 0.187180 -0.180500 
-1.052400 1.199500 0.018949 
-0.267610 1.723300 0.072895 
-0.744920 -0.892050 -0.308490 
0.913800 -0.573160 -1.149600 
0.746550 -0.877810 -0.327420 
-0.897100 0.962770 -1.303300 
0.899020 -0.677990 -0.040878 
0.872690 1.096800 -0.221680 
0.337380 -1.585700 0.134650 
0.894260 -0.410170 -1.157000 
-0.732070 1.308700 -0.966180 
0.643980 0.923900 -1.299200 
0.439710 -1.508500 0.176300 
-0.298000 -1.341900 -0.944210 
-0.925050 -0.032804 -0.768780 
-0.028515 -1.439800 -0.648520 
0.219860 1.497200 -0.396590 
-0.606650 -0.655870 -0.810590 
-0.435070 1.582900 0.055225 
0.682580 0.669520 -0.748460 
-1.051200 0.095180 -0.921240 
0.068405 1.529000 -0.350550 
-0.897300 -0.234090 -0.233380 
-0.967750 1.079100 -0.030895 
0.629740 1.300600 -1.012600 
0.463210 -1.187900 -0.102900 
0.935830 -0.264540 -0.793720 
-0.953680 0.827020 -0.663720 
-0.674540 -0.547530 -0.793690 
0.892590 0.286280 -0.347990 
-0.882780 1.051700 -0.526570 
-0.291270 -1.523700 -0.174930 
-0.576810 -0.664900 -1.197700 
-0.142480 1.514000 -0.247270 
0.081641 1.535400 -0.220890 
0.963040 0.067207 -0.408800 
0.651340 1.243300 -0.917100 
-1.063100 0.550280 -0.752910 
-0.777590 1.306400 -0.372500 
-0.347150 -0.988960 -1.567300 
0.763480 0.318510 -1.593900 
0.839860 -0.685440 -0.549630 
0.670320 0.788200 -1.621900 
0.705230 0.538690 -0.780300 
-0.779050 1.307000 -0.510390 
0.060802 1.539600 -0.480090 
1.001500 -0.640930 0.031554 
0.865640 0.202480 -0.472970 
-0.509860 -0.779850 -1.208800 
0.366710 -1.254100 -0.258980 
-0.945210 -0.092040 -0.972560 
0.555870 1.381500 -0.872340 
-0.939820 -0.195870 -1.170100 
-0.888780 -0.060131 -0.385310 
-0.025379 -1.435900 -0.781240 
0.802610 -0.775500 -0.232340 
-0.684770 -0.527100 -0.606080 
-1.061400 0.546800 -0.237100 
-0.402330 -0.988610 -0.795750 
0.687830 0.602110 -1.024300 
0.241940 -1.384200 -0.207680 
-0.787760 -0.741510 -0.291190 
-0.775760 1.310700 -0.145200 
0.401650 1.420500 -1.472000 
0.634170 -1.087200 0.009276 
-0.869100 1.020000 -1.159300 
-0.319810 1.490200 -0.364340 
0.658240 1.173400 -0.688040 
0.524180 1.301900 -1.421100 
-1.263600 0.414200 -0.002152 
-0.661530 1.461900 0.004457 
0.663940 0.972970 -1.696000 
-0.847240 -0.250360 -0.353540 
-0.731560 -0.444340 -1.298700 
-0.917220 0.936160 -0.480330 
0.969190 -0.063211 -1.379400 
0.219100 1.621700 -0.098995 
-0.080319 1.503500 -0.950720 
-0.266470 -1.397800 -0.838220 
-0.889420 0.821890 -1.381600 
-0.854890 1.163300 -0.523760 
0.771890 0.935290 -0.293030 
0.108300 -1.468600 -1.504300 
0.612460 1.345300 -0.756170 
0.937910 0.104350 -0.518250 
0.963640 -0.156710 -0.903980 
-0.988620 0.821960 -0.126250 
-0.296190 -1.352000 -0.737450 
0.197060 -1.654700 0.012307 
-0.858290 1.095300 -0.247990 
-0.987520 0.646200 -1.045700 
-0.755780 1.345200 -1.086700 
-0.260900 -1.403500 -0.636430 
-0.895550 0.998080 -0.639700 
0.792290 0.275360 -1.044700 
0.756050 0.486140 -0.476030 
0.645920 1.158900 -0.495060 
0.833900 0.567820 -0.344810 
0.847560 -0.941030 0.061665 
-1.004600 0.716290 -0.661220 
0.920080 -0.371210 -0.255390 
0.921490 0.121150 -1.029500 
-0.750240 -0.408480 -0.986170 
-0.377660 1.462500 -0.499390 
-0.012723 -1.398300 -1.327800 
0.413560 1.420200 -0.523790 
0.098780 -1.436000 -1.281800 
-1.072300 0.551680 -0.626020 
0.762510 0.452980 -1.651900 
0.698980 0.921800 -0.387900 
-0.521360 -1.272900 -0.303330 
-0.937290 0.871090 -0.231890 
-0.581090 1.422400 -0.096333 
-0.488190 -0.767280 -1.551300 
0.739140 -1.032200 -0.778390 
0.675530 0.594770 -1.258900 
-0.481810 1.496400 -0.838470 
-0.954490 0.819510 -0.383980 
-1.009500 0.656610 -0.917410 
0.611260 1.087800 -1.672000 
0.690780 -1.137600 0.092520 
-0.013759 -1.519300 -0.187420 
-0.958770 0.825000 -0.525880 
-0.625350 -0.621430 -0.683410 
-0.596410 1.435600 -0.759270 
-0.754390 -0.410250 -0.628400 
-0.206880 1.509400 -0.357880 
0.866510 0.158710 -1.185300 
0.720050 0.471230 -0.912830 
0.746880 -0.875910 -0.174560 
0.245700 -1.409600 -1.032300 
0.400000 1.370900 -1.163000 
-0.397080 -1.400800 -0.242900 
0.467020 -1.187600 -0.251850 
0.750820 0.326500 -1.283400 
-0.802250 -0.361730 -0.395580 
-0.614120 -0.623060 -1.042600 
0.977820 -0.065716 -1.582100 
-0.819820 1.211000 -0.678800 
-0.770740 1.302600 -0.259930 
1.059500 -0.745500 0.070608 
0.506080 1.345800 -1.191600 
-0.683220 1.364900 -0.299810 
-0.614670 -0.649440 -0.569960 
-0.561660 -0.724600 -0.724210 
0.473210 1.466000 -0.221970 
-0.243200 -1.398200 -0.413510 
0.966660 -0.944110 0.094246 
-1.016400 0.342350 -0.740590 
0.651850 1.120400 -0.933770 
0.592660 -1.055600 -0.394590 
0.333310 1.465400 -0.306370 
0.583310 1.416500 -0.230870 
-0.145480 -1.433000 -0.467520 
-0.041836 1.528000 -0.383810 
0.252130 1.538000 -0.191580 
-1.158100 0.940140 0.024735 
-0.691710 1.369100 -0.431210 
0.572670 1.271000 -1.575700 
-0.924170 0.051289 -0.331380 
0.976600 0.260000 -0.271440 
-0.302720 -1.228300 -0.705640 
-0.763380 -0.400770 -1.124900 
-0.371840 -1.028800 -0.929310 
-0.835680 1.212900 -0.413430 
-0.431280 1.459700 -0.389180 
-1.000500 0.273670 -0.351710 
0.122990 -1.546400 -0.703100 
-0.847870 1.142700 -1.223700 
0.849540 -0.679620 -0.413770 
1.181900 0.031513 -0.108300 
0.656420 0.864210 -1.139800 
0.574000 1.375900 -0.613850 
0.088435 -1.460400 -1.172400 
-0.371540 -1.015500 -1.070700 
-1.008800 0.709020 -0.205460 
0.463710 1.412300 -0.636280 
0.536610 -1.170800 0.017603 
0.098992 1.586700 -0.104900 
0.435000 -1.383800 0.144150 
0.445520 1.406000 -0.854780 
-0.578260 1.403300 -0.230530 
0.972620 -0.143080 -0.767540 
0.652870 0.727450 -1.304900 
-0.301810 -1.117800 -1.314300 
0.160990 1.523300 -0.559690 
0.892460 -0.345570 -1.063900 
-0.487120 1.437000 -0.688600 
0.645590 0.992770 -1.131800 
0.818170 0.204500 -1.312600 
0.982870 -0.056120 -1.150400 
0.651810 0.654960 -1.436100 
-1.073800 0.781680 -0.039415 
-0.892480 0.984550 -0.332200 
-0.305660 -1.200300 -1.082700 
0.668460 0.583300 -1.526500 
0.866890 0.182610 -0.694520 
-0.647740 -0.581730 -0.931320 
-0.886170 -0.275750 -1.281400 
0.676810 0.736380 -0.848770 
-0.102200 1.520600 -0.512030 
-0.748700 1.291000 -0.726840 
0.302720 1.408700 -1.119700 
-1.006900 0.284240 -0.487730 
-0.888090 0.891480 -1.156900 
-1.033500 0.661770 -0.554020 
-0.386770 -1.205500 -0.370520 
0.641120 -1.013100 -0.625960 
-0.934300 0.693690 -1.246600 
-1.035000 0.532400 -1.036000 
-0.825920 -0.255790 -0.919890 
0.746580 -0.953520 -0.663690 
0.832160 -0.647330 -0.769950 
0.533230 1.369100 -1.046000 
0.692440 0.604230 -0.882210 
0.009767 -1.463600 -0.307890 
-0.130520 1.543100 -0.096329 
0.299350 -1.297100 -0.734230 
0.750090 1.057600 -0.276720 
0.650260 0.985080 -1.422400 
-0.469850 -0.880750 -0.792900 
0.092106 -1.664900 -0.058512 
0.770870 1.259600 -0.214630 
-0.936610 -0.345250 -0.187670 
0.986120 -0.029921 -0.343950 
0.069126 -1.511400 -0.591610 
-1.059600 0.430770 -0.244820 
1.141400 -0.444360 0.020235 
-0.849030 1.135500 -1.103400 
0.704320 0.796610 -0.429710 
0.701990 0.448400 -1.517700 
-1.139400 -0.085890 -0.015097 
-0.362360 1.512600 -0.040542 
0.035320 1.549700 -0.897250 
-1.176300 0.488230 -0.036290 
0.262060 -1.445400 -1.337200 
0.871200 -0.513110 -1.038300 
-1.238500 0.256470 0.006236 
0.642940 0.857310 -1.389800 
0.278570 -1.316200 -0.502880 
-1.039200 0.385650 -0.865720 
0.486040 1.614000 -0.139860 
-0.377980 1.472200 -0.733530 
0.833540 -0.832160 -0.892110 
-0.961070 0.131990 -0.577510 
-0.085213 -1.423300 -0.892450 
0.026508 -1.463200 -1.011900 
0.798550 -0.794530 -0.638280 
-0.848830 -0.435020 -0.272670 
-0.857720 1.068100 -1.010000 
-0.889520 1.109600 -0.114230 
-0.295970 -1.293900 -0.610860 
0.656580 1.051600 -0.699420 
-0.681690 -0.571860 -0.471980 
-0.817950 -0.273580 -0.768470 
0.167540 1.724300 -0.044996 
0.892430 -1.059300 0.107600 
-0.536380 1.425700 -0.365510 
0.307510 1.466300 -0.616490 
-0.510210 -0.812330 -0.886710 
-0.989300 0.129480 -0.155920 
-0.866940 -0.265370 -1.113300 
-0.513060 -0.795850 -1.022600 
-0.930140 0.764300 -1.127500 
0.663640 0.919610 -0.510100 
-0.646660 -0.551860 -1.179300 
0.661180 1.333700 -0.251020 
0.513570 -1.145300 -0.370620 
-0.210990 1.502700 -0.476870 
-0.068275 1.625400 -0.010137 
0.162550 -1.458600 -1.389800 
0.265550 -1.357600 -0.064484 
-0.129550 -1.412500 -1.437200 
0.640360 1.240800 -1.137500 
1.155500 -0.089023 -0.074036 
-0.923760 0.886030 -0.794670 
-0.019118 -1.401300 -1.170400 
0.968870 -0.136310 -0.305410 
-0.066386 1.552400 -0.847370 
-1.055800 0.205600 -0.982930 
0.623770 1.316300 -0.356260 
0.002472 1.543100 -0.583240 
-1.002100 0.058516 -0.819270 
0.921320 -0.225970 -1.054000 
-0.642240 -0.542760 -1.335900 
-0.322450 -1.052800 -1.438300 
-0.905070 0.985340 -0.187490 
-0.783850 -0.417260 -1.429500 
0.256980 -1.369200 -0.926210 
0.964410 -0.171830 -0.513210 
-0.821400 -0.270750 -0.487000 
-1.029900 0.518020 -1.188300 
0.210850 1.486200 -1.193600 
-1.036000 0.243980 -0.132250 
-0.882190 0.948720 -1.016400 
1.038200 -0.103070 -0.145330 
-0.294980 -1.112200 -1.533000 
-1.068600 0.157900 -0.056388 
0.651970 0.994950 -1.018200 
-0.275950 -1.238100 -1.496200 
0.966280 -0.236180 -0.195620 
-0.659780 -0.765980 -0.366600 
-0.503810 -0.773040 -1.330200 
-1.044200 0.379860 -0.375340 
0.512210 1.400700 -0.751990 
0.652080 1.182400 -1.034800 
0.685520 -0.975230 -0.102860 
0.961380 0.052199 -1.583200 
-0.758520 -0.502420 -0.372260 
0.355030 1.671200 -0.107380 
0.867980 0.141960 -1.560000 
0.129520 1.501900 -0.946400 
0.616830 1.323100 -0.474720 
0.095278 -1.534900 -0.253490 
-0.887490 1.000600 -0.772040 
-0.962520 0.171730 -0.380310 
0.862490 -0.588670 -0.670000 
0.501710 -1.261300 -0.859640 
0.679190 -0.972730 -0.464800 
0.673060 0.795010 -0.550530 
0.880530 -0.580290 -0.526680 
0.679830 1.041900 -0.376270 
-0.550190 -0.749730 -0.608260 
0.375350 -1.276900 -0.817740 
0.658830 0.994600 -0.874320 
-1.075800 0.007746 -0.031034 
0.910360 -0.383180 -0.804390 
0.892690 -0.393060 -0.932070 
0.080229 -1.573300 -0.135250 
-0.642130 -1.062200 -0.327810 
-1.095000 0.414380 -1.165500 
0.656840 1.239300 -0.779370 
-0.197520 -1.401200 -1.323000 
-0.375840 -1.108400 -0.472120 
0.893250 -0.679430 -1.060800 
-0.548880 -1.002400 -0.372880 
-1.045100 0.603610 -0.344980 
0.758320 -0.890720 -0.560740 
-1.238100 0.692880 0.007351 
-0.029285 -1.426400 -0.416020 
0.559200 -1.105500 -0.093707 
0.274800 -1.327900 -0.312710 
-0.391770 1.697900 0.084826 
-1.046400 0.543600 -0.910830 
0.552420 -1.101000 -0.229460 
0.882550 -0.570000 -0.408460 
0.694980 0.603540 -0.621010 
-0.683310 -0.509190 -1.056800 
1.034800 -0.498980 0.004864 
-0.297820 -1.176800 -1.625800 
0.637920 1.172800 -1.266600 
-0.857060 -0.167500 -0.434230 
-0.979460 1.328600 0.016479 
0.744340 0.317500 -1.456500 
-0.105530 1.517300 -0.632640 
-0.961530 0.771880 -0.933070 
0.215300 1.444600 -1.000400 
-1.025100 0.340210 -0.601880 
-1.113800 0.288980 -0.052961 
-0.570600 -0.656980 -1.316900 
-1.070100 0.424540 -1.022900 
0.905380 -0.233360 -1.193600 
0.624840 1.160600 -1.569200 
-0.141240 -1.621400 -0.127160 
0.486130 1.402200 -0.340420 
0.650710 1.041200 -0.502000 
0.740880 0.409440 -0.776480 
0.704040 1.167400 -0.286950 
-0.809450 1.255000 -1.190700 
0.715210 0.720450 -1.708100 
0.718280 -1.263500 0.143840 
0.943760 -0.249430 -0.660680 
1.002900 -0.036901 -0.899840 
0.662540 0.866510 -1.025300 
-0.608630 -0.894000 -0.366900 
-0.502470 -1.122900 -0.355140 
0.998720 -0.071334 -0.647880 
0.854780 -0.727820 -0.965930 
-0.980260 0.129880 -0.696640 
-0.278970 -1.244200 -1.321900 
0.202600 1.500000 -0.670730 
1.079600 -0.219150 -0.061598 
0.925350 -0.367190 -0.643810 
-1.068600 0.491760 -0.387260 
0.641570 0.789770 -1.483100 
0.558910 -1.093200 -0.683950 
0.179430 1.515600 -0.292540 
-0.939610 0.025996 -0.216730 
0.715250 0.467200 -1.056000 
0.590800 -1.226800 0.111030 
-1.197700 0.103060 0.010182 
0.672500 0.735990 -0.990070 
-0.444790 -0.920510 -0.924590 
-1.000800 0.234200 -0.816680 
0.398760 -1.243400 -0.706930 
0.967630 0.083647 -0.882110 
0.771000 0.679580 -0.370330 
-0.907740 -0.177260 -1.052500 
-0.996260 -0.085700 -0.096365 
-0.423940 1.459600 -0.268740 
0.509170 -1.203000 -0.754720 
0.847310 -0.672010 -0.300910 
-0.712600 -0.639570 -0.362000 
-0.590050 -0.746740 -0.473330 
0.228300 -1.517300 0.023490 
0.851120 -0.613320 -0.945430 
-0.245940 1.538100 -0.050322 
0.404170 -1.292000 -0.941750 
-0.003517 1.554800 -0.709620 
0.126230 -1.540500 -0.836350 
0.915210 -0.175200 -1.403700 
-0.684270 -0.496120 -1.442800 
0.293950 1.451800 -0.761310 
-0.644970 1.390600 -0.531220 
0.830950 0.222290 -0.932980 
-0.534190 -0.868980 -0.458880 
0.324200 -1.332100 -1.076200 
-0.312470 -1.285100 -0.838120 
0.387670 1.558700 -0.156640 
-0.443020 -0.896750 -1.177800 
0.649650 1.106300 -0.596240 
0.045629 1.739800 -0.002398 
0.757080 0.332400 -1.162700 
-0.365380 -1.000800 -1.305300 
0.856930 -0.667200 -0.153930 
0.668550 0.866870 -0.880980 
-0.827460 1.206800 -0.292690 
0.170250 -1.554800 -0.546430 
-1.055600 -0.333450 -0.118190 
0.476570 -1.177600 -0.634780 
0.470290 -1.178900 -0.517520 
0.231510 -1.441200 -1.149400 
-0.023894 -1.651700 -0.100450 
-0.278450 -1.354600 -0.513560 
-0.396440 -1.298400 -0.301330 
-0.323400 -1.115600 -0.641350 
-0.391000 -0.937650 -1.473800 
-0.436180 -0.887870 -1.339800 
-0.370090 -1.007600 -1.184400 
-0.624120 -0.543730 -1.549500 
-0.598330 -0.596250 -1.432600 
-0.819330 -0.357890 -1.237100 
-0.742930 -0.437440 -0.519260 
-1.052600 0.324720 -0.961140 
-1.026000 0.316810 -0.233660 
-1.061800 0.440480 -0.667470 
-1.072700 0.551090 -0.498440 
-1.068900 0.437020 -0.488960 
-1.157200 0.614200 -0.032867 
-0.922200 0.828540 -1.031700 
-0.876710 1.003900 -0.903100 
-0.805980 1.234600 -1.054900 
-0.730070 1.335200 -0.614710 
-0.595750 1.416000 -0.646760 
-0.321410 1.464000 -0.634230 
-0.310870 1.592600 0.036100 
0.097199 1.541600 -0.772810 
-0.015737 1.561900 -0.106300 
0.403100 1.427200 -0.732360 
0.523580 1.387600 -0.506290 
0.580490 1.272500 -1.319100 
0.644810 1.117200 -1.156800 
0.654430 0.984720 -0.604380 
0.666030 0.928860 -0.774780 
0.674330 0.732780 -0.649610 
0.676170 0.650860 -1.622300 
0.716580 0.606520 -0.501330 
0.710570 0.463300 -1.170900 
0.873350 0.176570 -0.825640 
-1.104400 0.304880 -1.087300 
0.963560 0.093090 -0.746050 
1.005400 -0.023314 -0.762030 
1.023800 0.164190 -0.229020 
0.674990 -0.969220 -0.230470 
0.867580 -0.502330 -0.919400 
0.948730 -0.553880 -0.044403 
0.977150 -0.107970 -1.026300 
0.806830 -0.812600 -0.772450 
0.751090 -0.882700 -0.447080 
