-0.879420 -0.648410 -0.874500 
0.598230 1.542000 -0.230240 
-1.040200 -0.351820 -0.274690 
0.965660 0.470650 -0.896600 
0.048587 -1.631400 -1.059000 
-0.583860 -1.152500 -0.481490 
0.034942 -1.660700 -0.082431 
-1.208500 0.772440 -0.642910 
-0.487200 -1.319000 -0.735650 
0.441660 1.623400 -0.717390 
0.905320 0.806810 -0.748290 
1.158600 -0.312800 -0.098517 
0.641230 -1.276700 -0.777090 
-0.206570 -1.548400 -1.266000 
1.152500 -0.364450 -0.361450 
1.026700 -0.814640 0.028607 
1.017800 0.264700 -1.664800 
-0.886890 -0.660630 -0.251990 
-1.141000 0.965330 -0.641010 
0.856900 0.995840 -1.339000 
-1.057100 -0.204710 -1.085100 
0.645400 1.481600 -1.006800 
1.119000 -0.519510 -0.516980 
0.666700 -1.313800 0.155850 
0.290780 -1.615700 0.098121 
0.600200 1.526000 -0.885290 
1.178900 -0.168100 -0.105190 
0.048299 -1.616300 -1.197800 
-0.796530 1.512100 -0.383650 
-1.240900 0.642420 -0.655530 
1.095600 0.228420 -0.909060 
-0.204640 1.732200 0.062765 
0.906270 0.503880 -1.696000 
-0.481890 1.612900 -0.810000 
-0.264430 -1.505700 -1.390000 
1.180100 -0.011838 -0.712560 
-1.230500 0.247150 -0.369020 
1.159500 -0.318580 -0.501610 
0.996400 0.412660 -0.741730 
0.652440 -1.288400 -0.660680 
-1.076500 1.090100 -0.899220 
-0.315910 -1.534400 -0.514340 
1.128200 0.178030 -0.742790 
1.054000 -0.580120 -1.161100 
-0.627520 -1.066200 -0.853590 
-0.688990 -0.900810 -1.422400 
-1.161300 0.020937 -0.501160 
0.901900 0.901850 -0.250210 
0.939440 0.532810 -1.032200 
-0.952450 -0.536380 -0.542350 
-1.116300 -0.033056 -0.887670 
-0.979460 1.328600 0.016479 
-0.367730 -1.488500 -0.607560 
-0.846480 -0.694130 -0.978740 
0.733370 -1.182500 -0.751090 
0.353450 -1.569200 -0.093279 
0.197060 -1.654700 0.012307 
-0.220280 1.725000 -0.093188 
0.283460 -1.602000 -0.767200 
1.046200 -0.643370 -1.029600 
0.228930 1.710800 -0.066750 
-0.743080 -0.786710 -1.587300 
0.966660 -0.944110 0.094246 
0.171440 -1.655100 -0.622570 
-0.744920 -0.892050 -0.308490 
0.704630 1.451500 -0.227070 
-0.880800 -0.627330 -1.064300 
-0.265870 -1.564500 -0.626530 
-1.156800 -0.010888 -0.302820 
0.688930 1.432400 -1.098400 
-0.559720 -1.180500 -0.885410 
1.154200 -0.174460 -1.147700 
-0.526030 -1.254500 -0.488880 
0.089093 1.732900 -0.328170 
1.169000 -0.104560 -1.029200 
1.051000 -0.749530 -0.059716 
0.669820 1.388200 -1.528600 
-0.978740 -0.482920 -0.314180 
-0.493660 -1.296800 -0.918860 
0.853750 0.833270 -1.703200 
-1.176400 0.033116 0.006078 
1.126900 0.088860 -1.368300 
1.164600 -0.271770 -0.645280 
-0.046015 1.731800 -0.509260 
1.113500 -0.528840 -0.629810 
0.808590 1.094100 -1.674800 
1.084500 -0.535940 -1.023100 
0.095103 1.731100 -0.195860 
0.994570 0.325890 -1.536500 
-1.134600 1.003400 0.025318 
-1.229900 0.706440 -0.543350 
0.663240 -1.308000 0.021556 
0.099028 -1.662100 -0.229980 
1.116900 -0.161950 -1.511400 
0.486040 1.614000 -0.139860 
1.027100 0.348660 -0.856890 
-1.093300 1.025700 -1.009300 
0.955610 -0.864500 -0.895320 
-0.538900 -1.127400 -1.613600 
0.614620 -1.356400 -0.110820 
1.078700 -0.464110 -1.275500 
0.410690 -1.527500 -0.192890 
-0.521360 -1.272900 -0.303330 
-1.150100 0.944890 -0.101950 
-0.835040 -0.730930 -0.745890 
-0.258290 -1.482100 -1.596700 
-1.101600 1.072100 -0.098832 
-1.037400 1.070000 -1.298200 
-0.687410 1.579000 -0.390780 
-1.013500 1.268000 -0.234290 
-0.924380 1.364100 -0.783800 
-1.192800 0.772010 -0.926900 
-0.904830 -0.615310 -0.722130 
-0.880920 -0.564000 -1.504400 
0.889290 -1.050300 -0.366270 
0.869850 0.703960 -1.656600 
-1.247500 0.635050 -0.234880 
-0.259420 -1.569900 -0.421200 
0.873390 1.071700 -0.614040 
0.478070 1.547100 -1.291200 
0.764730 1.323600 -1.171100 
-1.181400 0.837860 -0.772960 
-0.773490 -0.834840 -0.411130 
0.167350 -1.659500 -0.470790 
0.914620 0.736230 -0.637140 
-0.981830 1.183600 -1.260900 
-0.177560 1.723300 -0.493380 
1.155700 -0.368280 0.004630 
0.883650 0.720080 -1.428800 
-0.609530 -1.013900 -1.564500 
-1.111000 1.029700 -0.758710 
1.074500 -0.687080 -0.152780 
0.812960 1.273000 -0.772660 
1.060600 -0.650330 -0.879490 
0.379080 -1.537900 -0.664310 
-1.231500 0.264240 -0.512100 
1.178700 -0.179710 -0.480290 
-1.147500 0.829400 -1.187000 
1.022700 0.366130 -0.446680 
-1.160600 0.834000 -1.059500 
-1.241000 0.332180 -0.640120 
1.174200 -0.221840 -0.341290 
0.688560 1.468200 -0.370720 
-1.078400 -0.150550 -0.987120 
0.713390 -1.257400 -0.360630 
0.939770 -0.927240 -0.745470 
-0.878690 -0.661470 -0.374430 
-0.473690 -1.241700 -1.613600 
0.777850 1.350000 -0.265270 
-0.605840 1.564600 -0.830840 
0.425430 -1.507500 -0.546770 
1.003700 0.329980 -1.405300 
1.003100 -0.752550 -0.992010 
0.915300 -0.986650 -0.623540 
-0.944550 -0.509700 -1.089600 
-1.259800 0.495230 -0.113550 
0.616600 -1.353900 -0.241330 
0.738130 1.388700 -0.977260 
0.660040 -1.297100 -0.545440 
-1.219100 0.178170 0.009744 
0.541310 1.553600 -0.985370 
-0.953220 1.310100 -0.899350 
-1.129200 0.965910 -0.862950 
-0.099254 1.677700 -0.911310 
0.929350 0.603730 -0.870100 
0.766250 -1.213500 0.132600 
-0.310600 1.702500 -0.487580 
-0.922930 1.291300 -1.169900 
1.120900 -0.037325 -1.575100 
-0.208030 -1.559800 -1.154200 
0.213080 -1.572500 -1.290900 
1.123700 0.161550 -1.038400 
1.072600 0.212220 -1.389700 
0.150780 -1.658800 -0.114460 
-1.005200 1.269000 -0.626300 
-0.763440 -0.847190 -0.759640 
-0.947920 -0.519330 -0.959450 
0.046282 -1.657800 -0.637680 
1.125400 -0.500690 -0.347520 
0.819590 1.202800 -1.158800 
0.988420 0.402350 -1.060600 
0.044185 -1.660800 -0.485420 
-0.268320 -1.559000 -0.750750 
-0.836710 1.447300 -0.785890 
-1.200000 0.146830 -0.506400 
-0.834530 -0.737920 -0.500080 
-1.145900 0.900570 -0.963700 
-0.786530 1.521400 -0.193960 
1.027000 0.360620 -0.571040 
-1.113600 -0.090551 -0.744150 
0.894090 0.916220 -0.364610 
0.947410 0.538070 -0.777590 
-1.146500 0.961920 -0.482440 
-0.243740 1.704800 -0.600720 
-1.212800 0.335300 -1.021300 
-1.048600 -0.326100 -0.640620 
-1.103300 -0.184310 -0.109780 
-0.894460 1.428900 -0.376060 
0.344330 1.670400 -0.234680 
0.761260 -1.209100 0.009835 
-0.556710 -1.140300 -1.309300 
-1.077800 0.943880 -1.368200 
-0.081306 -1.613300 -1.027000 
-0.718440 -0.926290 -0.482220 
0.146690 1.720700 -0.509420 
1.112700 -0.553730 -0.215260 
-0.708510 1.572400 0.035805 
-0.444420 -1.396100 -0.288060 
-0.689090 -0.976680 -0.372360 
0.805770 -1.157300 -0.352710 
-0.995980 -0.449270 -0.634900 
0.520340 -1.430900 -0.486510 
0.324800 1.667200 -0.713760 
0.519150 -1.422900 -0.610750 
0.514900 -1.442800 -0.242290 
1.152100 0.103450 -0.927590 
-0.145440 -1.616300 -0.643900 
-0.825530 -0.672510 -1.424300 
0.280600 -1.589700 -0.912840 
-0.145990 -1.611400 -0.770220 
-1.254800 0.373040 -0.358850 
0.835840 1.226300 -0.230960 
1.116200 0.088241 -1.491500 
-1.214600 0.639860 -1.053700 
-1.023800 -0.299770 -1.170600 
0.841800 1.202500 -0.601000 
1.170300 0.044957 -0.819610 
0.915000 0.773980 -0.273560 
0.867810 0.778100 -1.563400 
-1.140600 -0.056723 -0.409160 
-0.514970 -1.190700 -1.479100 
-1.088800 -0.222310 -0.228950 
0.528360 1.506400 -1.412800 
0.807590 -1.159300 -0.224400 
0.787970 1.255000 -1.301900 
-0.201620 -1.521100 -1.502900 
-0.848270 1.466700 -0.501060 
0.658160 1.488600 -0.782910 
0.910430 0.667960 -1.072300 
-0.746280 1.539900 -0.499610 
-0.937260 1.382000 -0.265710 
-1.108000 0.959240 -1.116100 
-1.254200 0.382460 -0.489000 
0.540590 -1.352900 -0.885550 
-1.242200 0.297550 -0.265390 
-1.250500 0.354190 -0.152130 
0.559680 -1.373400 -0.707180 
0.468600 -1.479600 -0.348690 
0.994970 -0.880430 -0.110160 
0.910150 0.739810 -0.840450 
1.170000 0.066376 -0.600800 
0.779190 1.239300 -1.467700 
0.789190 -1.142100 -0.654630 
-0.377410 -1.484100 -0.203930 
0.801190 1.305900 -0.370610 
1.092300 -0.631270 -0.304380 
-0.936680 1.376900 -0.498940 
-1.055300 -0.317880 -0.389490 
0.955110 0.462060 -1.173600 
0.762450 1.379500 -0.520710 
-1.235300 0.642800 -0.777200 
-0.893320 -0.560660 -1.378400 
-1.101700 1.080600 -0.252730 
-0.080610 -1.600200 -1.168600 
0.371700 -1.556200 -0.373420 
-1.129600 -0.095969 -0.198520 
-1.099800 1.085600 -0.375830 
0.554480 -1.414500 0.176200 
0.635460 1.464900 -1.219400 
-1.218600 0.204390 -0.108060 
-1.188500 0.701450 -1.167600 
0.807210 -1.159600 -0.089711 
-0.567720 1.633700 -0.384700 
-1.152500 0.090987 -0.911900 
0.743320 1.283300 -1.580300 
-0.498450 1.661700 -0.293170 
0.970470 0.476600 -0.609650 
0.801770 -1.153500 -0.473640 
-1.247300 0.638650 -0.384250 
-0.908840 -0.562780 -1.185600 
-0.716400 -0.929040 -0.661700 
-0.421440 -1.400900 -1.056000 
1.133800 -0.236710 -1.259200 
-0.776450 1.525700 -0.073606 
-0.661220 1.594200 -0.094788 
0.436750 1.617600 -0.830370 
-0.016686 -1.635700 -0.910610 
-0.578940 1.637300 0.079233 
-0.582500 -1.161900 -0.340050 
0.555870 -1.404900 0.026845 
1.048700 0.330580 -0.251860 
-0.997350 -0.398370 -1.085800 
0.878470 0.865830 -1.263600 
-1.181500 0.630360 -1.334000 
-0.419720 -1.387900 -1.201500 
0.321300 1.657100 -0.849630 
-0.209070 -1.581700 -0.875530 
0.893310 0.937810 -0.625140 
-0.585840 -1.144400 -0.740550 
-1.190700 0.835680 -0.550720 
0.220430 1.708100 -0.193970 
-0.420180 -1.416100 -0.886910 
-0.445260 -1.304300 -1.524300 
0.173340 -1.649200 -0.745570 
0.470040 1.617100 -0.270130 
-1.183700 0.212460 -0.989880 
1.105200 0.235270 -0.205660 
-0.977270 1.327000 -0.359580 
-0.530630 1.649300 -0.031344 
-0.844290 1.477100 -0.283300 
1.131100 -0.300830 -1.157700 
0.533560 1.534300 -1.189000 
0.872690 1.096800 -0.221680 
-0.932340 -0.571540 -0.435720 
0.715200 1.353400 -1.428900 
0.267810 1.690400 -0.608670 
-0.175100 1.703200 -0.699960 
1.062800 0.209670 -1.517600 
-1.159600 0.002586 -0.101920 
0.837020 0.965310 -1.693900 
-1.045000 1.209200 -0.328740 
1.081500 0.264760 -0.369650 
-0.652090 -1.033400 -0.714870 
-1.045300 1.202000 -0.125740 
1.182000 -0.130010 -0.589750 
0.021539 1.735500 -0.419080 
0.275300 -1.621600 -0.407880 
0.871730 0.858390 -1.386600 
-0.039050 1.738900 -0.311510 
-0.855020 1.387400 -1.043500 
-0.354520 1.648300 -0.813510 
-0.301470 -1.540900 -0.268160 
0.854200 1.144700 -0.788330 
-0.451630 -1.313900 -1.397100 
1.153100 0.137820 -0.155370 
-0.326410 -1.511600 -0.917200 
0.302700 -1.524000 -1.179500 
-0.796470 1.495300 -0.637950 
-1.184600 0.161250 -0.811770 
0.106200 -1.582500 -1.444600 
0.509950 -1.447300 -0.126480 
-0.810450 -0.742120 -1.089000 
0.893190 0.574310 -1.604100 
0.203530 1.648300 -1.138300 
-0.490880 -1.263800 -1.274600 
1.046700 -0.762790 -0.389600 
0.395850 -1.461000 -1.049000 
0.215060 1.711600 -0.326100 
0.947050 0.456190 -1.331500 
-0.678160 -0.899610 -1.557100 
-1.150500 0.034956 -0.748080 
1.130100 -0.169020 -1.399200 
1.124900 -0.521130 0.034782 
-0.527460 -1.212100 -1.157900 
1.154100 -0.236760 -1.020700 
-0.890390 1.416400 -0.650180 
-0.335110 1.706900 0.034958 
-0.771490 -0.792490 -1.206500 
0.855240 1.073800 -1.137500 
-0.369980 1.665500 -0.690480 
1.185200 -0.034162 -0.114980 
0.450420 -1.431400 -0.953990 
-0.886370 -0.651910 -0.575760 
-0.819870 -0.761110 -0.621030 
0.853300 0.912190 -1.559600 
-1.149200 0.957600 -0.355600 
0.439710 -1.508500 0.176300 
-0.167430 1.686500 -0.819510 
-1.263600 0.414200 -0.002152 
-0.376520 1.679500 -0.578210 
1.091000 -0.475710 -1.127600 
0.318380 -1.596000 -0.282430 
0.045629 1.739800 -0.002398 
1.147600 0.024115 -1.276800 
0.678260 1.479800 -0.499200 
0.911130 0.590910 -1.297800 
-1.179600 0.067723 -0.385350 
0.917080 0.595810 -1.180100 
0.995150 0.428880 -0.285520 
-1.052400 1.199500 0.018949 
0.969500 0.477750 -0.486480 
-0.996650 1.193700 -1.144400 
0.173870 -1.640900 -0.870140 
-1.249100 0.515300 -0.790350 
0.845230 1.143800 -1.021700 
-1.205900 0.507410 -1.258000 
1.134800 0.164250 -0.306800 
1.166700 -0.269440 -0.233620 
0.582820 1.554500 -0.370630 
0.374350 1.620200 -1.034900 
0.819770 -1.081700 -0.772020 
-1.013500 -0.415280 -0.515240 
0.202970 1.663000 -1.023700 
-0.621790 1.613900 -0.287670 
-1.219100 0.511380 -1.139600 
0.444520 -1.496200 0.046668 
-0.047119 1.721800 -0.641360 
-0.945190 -0.538090 -0.812240 
-0.353520 -1.501500 -0.385370 
0.930550 0.650920 -0.292480 
0.086573 1.669500 -1.038700 
1.153100 -0.109220 -1.241900 
-0.734530 1.516700 -0.780700 
-0.500050 1.628000 -0.689460 
-1.262300 0.505920 -0.364420 
1.120000 -0.476440 -0.775850 
0.790020 1.329500 -0.642880 
1.178700 0.020257 -0.468240 
-0.361940 -1.402800 -1.608700 
1.126100 0.187080 -0.623330 
-0.871990 1.398700 -0.896830 
-1.255000 0.514010 -0.675680 
-0.144200 -1.619400 -0.492290 
-0.080368 1.739800 0.012674 
0.470260 -1.455100 -0.719190 
0.934720 0.596290 -0.399700 
-0.735440 -0.885130 -0.876350 
-0.958860 -0.536470 -0.209140 
0.464050 -1.445100 -0.832990 
-1.180600 0.878190 0.022051 
0.845430 1.191700 -0.462570 
-1.213800 0.218240 -0.645550 
1.024500 -0.820570 -0.221980 
1.181900 -0.062587 -0.229760 
-0.630840 -1.071900 -0.411000 
0.667940 1.486600 -0.636300 
0.018447 1.709300 -0.782150 
1.179900 -0.087776 -0.795390 
-1.131600 0.822800 -1.314600 
0.963330 -0.940350 -0.238910 
-0.619260 -1.016700 -1.429800 
-0.444930 -1.392300 -0.591090 
1.071200 -0.651960 -0.751930 
-0.889220 1.434300 -0.175490 
0.081609 1.723000 -0.601070 
0.890790 -1.052800 -0.237370 
0.282860 -1.610000 -0.648800 
-0.350830 1.702500 -0.099413 
0.483360 1.572400 -1.082300 
1.143300 -0.398170 -0.598100 
1.142500 -0.416770 -0.253930 
-0.372750 -1.430300 -1.317200 
0.915550 0.730120 -0.507670 
-0.573480 -1.171300 -0.611790 
0.021271 1.692200 -0.898620 
-0.670930 -1.006200 -0.593180 
-0.774490 -0.813730 -0.963430 
-0.013870 -1.567100 -1.525000 
-1.026600 -0.402180 -0.151600 
-1.003500 -0.403690 -0.958950 
0.891190 0.802830 -1.147900 
0.104010 -1.664800 -0.376280 
-0.811850 -0.674460 -1.556500 
0.954560 0.380560 -1.684200 
0.935270 0.600910 -0.513470 
0.981190 -0.876870 -0.636750 
0.273210 -1.574300 -1.055500 
0.939620 0.450980 -1.459200 
-1.221300 0.280690 -0.776080 
0.280060 -1.616400 -0.528970 
-0.625410 1.580300 -0.702540 
1.169400 -0.218600 -0.760380 
0.749890 1.390400 -0.751790 
-0.596030 -1.091200 -1.152600 
-1.231300 0.514360 -1.022500 
-0.209020 -1.572200 -1.011600 
0.889790 -1.054000 -0.103030 
0.387810 1.651000 -0.610950 
-0.083065 -1.638500 -0.114670 
-0.690020 1.562400 -0.606050 
-0.992660 -0.352620 -1.308200 
0.894070 0.876380 -0.902240 
-0.249970 -1.576300 -0.151950 
-1.083700 -0.202670 -0.744190 
0.905870 0.738920 -0.969730 
-0.414350 -1.432900 -0.700490 
-1.042700 1.211500 -0.444890 
0.876460 0.939240 -1.145900 
-0.298620 1.714200 -0.236590 
0.630600 1.452100 -1.333700 
-1.089700 -0.145840 -0.861650 
-1.260700 0.432120 -0.242180 
-1.194400 0.820600 -0.108100 
-0.140560 -1.616700 -0.235120 
-1.193700 0.832760 -0.424010 
-0.870180 -0.617000 -1.283000 
0.271420 1.694400 -0.487130 
1.184100 -0.093734 -0.376910 
-1.259800 0.511080 -0.533500 
0.852510 -1.112500 0.114890 
-1.058800 1.152600 -0.757860 
0.914920 0.721430 -0.390160 
-0.950980 -0.452800 -1.345700 
1.011100 0.333820 -1.281800 
-0.940450 1.301100 -1.035300 
-0.694390 -0.958630 -0.793650 
0.849700 0.986250 -1.466100 
-1.261800 0.561130 -0.001617 
-0.884830 1.443700 0.025875 
1.081100 -0.673990 0.033403 
0.316450 1.622400 -1.147500 
-1.245600 0.631330 -0.115960 
0.571990 1.562200 -0.495570 
0.849480 1.067700 -1.252700 
-1.093800 0.952460 -1.242300 
-0.494780 -1.283000 -1.052900 
-0.326610 -1.500700 -1.054900 
-0.807220 -0.768550 -0.865360 
-1.212600 0.390180 -1.127000 
1.135500 -0.040472 -1.454300 
0.802880 1.271900 -1.003300 
1.088000 -0.640850 -0.437820 
-0.666390 -0.993750 -0.943220 
-0.456760 -1.371300 -0.398690 
-0.108770 1.733900 -0.403190 
0.561750 1.565500 -0.628370 
-1.050300 -0.309260 -0.763520 
-1.215400 0.766380 -0.329520 
-1.227500 0.642210 -0.899610 
-0.772740 1.472000 -0.903530 
0.892770 0.729330 -1.262700 
1.144900 0.146810 -0.440820 
0.876480 1.044500 -0.323470 
-1.178000 0.097697 -0.634020 
0.890980 0.942410 -0.742070 
0.955160 0.535120 -0.298990 
-0.815580 -0.777170 -0.283980 
0.934550 0.603740 -0.639670 
-0.368230 -1.418300 -1.438200 
-1.238100 0.692880 0.007351 
-0.765240 -0.787720 -1.324500 
0.993190 -0.881470 -0.370670 
0.112480 -1.640900 -0.965250 
0.904210 0.584760 -1.423500 
-0.997900 1.265700 -0.766770 
-1.243500 0.395150 -0.778400 
-0.371530 1.696600 -0.336370 
0.202780 1.681300 -0.886870 
1.162200 -0.041120 -1.151100 
-1.150600 0.952010 -0.228790 
-0.739250 -0.861200 -1.068100 
1.104400 -0.285230 -1.428800 
1.080900 0.215180 -1.268600 
0.047633 -1.597600 -1.341500 
1.175500 -0.029384 -0.907740 
-1.096800 1.089300 -0.498960 
-0.509870 -1.283500 -0.602660 
0.873370 1.011200 -0.998040 
1.162700 -0.229870 -0.889050 
-0.975230 1.325500 -0.117610 
0.723500 1.370300 -1.268100 
1.101600 0.088348 -1.620400 
-0.596430 -1.108500 -0.979150 
-0.755780 -0.785730 -1.451400 
0.171680 -1.623000 -1.060400 
0.367550 -1.512000 -0.951470 
1.141300 0.092682 -1.175100 
-0.017265 -1.643400 -0.779930 
-1.099600 -0.193260 -0.362210 
0.887940 -1.054400 0.012823 
1.016900 -0.822990 -0.509280 
0.875710 1.059100 -0.449520 
1.109600 -0.480950 -0.922020 
0.715200 -1.259600 -0.225620 
-1.004600 -0.421620 -0.787400 
-1.122300 -0.107220 -0.511090 
0.884260 -1.045700 -0.508610 
-0.545880 1.645800 -0.144960 
0.847270 1.176700 -0.333780 
-0.627920 -1.023800 -1.264100 
-0.842400 -0.677700 -1.185500 
0.204890 1.698600 -0.705320 
-0.966250 -0.450940 -1.196200 
-1.186500 0.087351 -0.184610 
-1.021400 1.207200 -0.881600 
1.082200 -0.647710 -0.569890 
1.087300 0.218600 -1.153900 
0.818710 1.109600 -1.537900 
-1.045900 -0.298840 -0.897360 
-0.325030 -1.487700 -1.200500 
-0.021461 -1.647600 -0.210810 
0.461410 1.623900 -0.385570 
-0.570820 1.617300 -0.588010 
0.616270 -1.347700 -0.436770 
0.827950 1.124800 -1.366100 
-0.020364 -1.650700 -0.324430 
0.879290 1.011800 -0.831210 
-1.064900 -0.289300 -0.513290 
1.130800 -0.462690 -0.092886 
-0.079581 -1.583500 -1.316600 
-0.696750 -0.904640 -1.296900 
-0.164750 1.733000 -0.214720 
-0.667800 -0.978630 -1.075600 
0.355030 1.671200 -0.107380 
0.567670 -1.395800 -0.333550 
0.376660 -1.527000 -0.799790 
0.257890 -1.628600 -0.131320 
0.168280 -1.606600 -1.189800 
0.214460 -1.648100 -0.259350 
-0.142140 -1.555700 -1.409900 
-0.142780 -1.619500 -0.375620 
-0.402610 -1.450900 -0.502220 
-0.701530 -0.911000 -1.180400 
-1.038100 -0.296260 -1.013700 
-1.103200 -0.155560 -0.630820 
-1.137700 -0.033239 -0.630190 
-1.139400 -0.085890 -0.015097 
-1.210800 0.280660 -0.896870 
-1.233600 0.396480 -0.911530 
-1.211500 0.171070 -0.282170 
-1.241100 0.515510 -0.905930 
-1.215300 0.762260 -0.204760 
-1.050900 1.078800 -1.175500 
-1.011900 1.202200 -0.998450 
-1.064900 1.153000 -0.637720 
-0.508410 1.648500 -0.499870 
0.371150 1.591700 -1.263700 
-0.453450 1.681100 0.086419 
-0.238420 1.722400 -0.331750 
-0.091894 1.736300 -0.119550 
0.337770 1.675200 -0.369160 
0.393800 1.652700 -0.485520 
0.552470 1.564300 -0.769920 
0.830860 1.210500 -0.910590 
0.901830 0.862210 -0.496200 
0.921120 0.671480 -0.750630 
1.017100 0.337600 -1.165600 
1.057000 0.281900 -1.051300 
-0.424380 1.685500 -0.184070 
1.061900 0.298930 -0.671360 
1.090000 0.254350 -0.496600 
1.162400 0.030236 -1.056500 
1.168900 0.060843 -0.239630 
1.105900 -0.353870 -1.283100 
1.142900 -0.355730 -0.837730 
1.116100 -0.422460 -1.020400 
1.096400 -0.607750 -0.061031 
0.889010 0.874600 -1.038400 
1.037200 -0.765450 -0.608710 
0.957130 -0.936080 -0.504740 
1.029100 -0.764100 -0.726180 
0.715270 -1.260000 -0.107250 
1.018700 -0.760350 -0.839850 
1.174700 0.039484 -0.352110 
