0.751990 -0.020017 -1.307100 
-0.206310 -1.100600 -0.810420 
0.288830 1.390100 -0.169120 
-0.494690 -1.320300 -0.286850 
-0.084176 -1.198100 -0.753620 
0.782600 -0.067011 -0.317350 
-0.597870 0.753940 -0.453470 
-0.628690 1.382000 0.034921 
-0.421850 1.285000 -0.707140 
-0.711080 -0.232220 -0.247960 
0.660880 -0.691950 -0.087975 
-0.760420 0.185510 -0.207930 
-0.519060 -1.150900 -0.317350 
0.828410 -0.189370 -0.113950 
0.350360 0.508920 -0.786640 
0.052523 1.685000 0.005448 
0.285660 0.790470 -1.114100 
-0.516720 -0.492470 -0.406910 
-0.566480 0.811420 -0.530960 
0.278940 1.159500 -1.120900 
0.526950 -0.571410 -0.610480 
0.421400 -1.078600 0.064089 
-0.086166 1.465700 -0.896300 
1.141400 -0.444360 0.020235 
-0.609630 -1.117400 -0.327940 
-1.219100 0.178170 0.009744 
-0.478580 1.508700 0.078467 
0.453670 -0.919580 -0.655390 
0.735250 -1.100000 0.123920 
-0.329940 1.711900 0.080274 
-0.026414 -0.994990 -1.322400 
0.078460 1.390100 -0.322140 
-0.555360 0.874010 -0.519070 
-0.094885 -1.105100 -1.567400 
0.289210 1.253500 -1.440700 
-0.543850 1.403900 -0.905160 
0.420460 1.644900 -0.124730 
-0.177720 -1.193700 -1.145400 
-1.056100 0.004034 0.004592 
0.650940 0.038977 -1.333900 
-0.274060 -1.013600 -0.407540 
-0.597900 1.303200 -0.049303 
0.573440 -0.381350 -0.468680 
-0.019367 -0.914760 -1.402300 
1.071200 -0.583390 0.051672 
0.830290 0.569560 -0.298210 
-0.012371 -1.243100 -1.337300 
-1.059500 0.714630 0.013440 
0.354280 0.984920 -1.377800 
0.038131 1.393900 -0.782850 
0.581910 -0.225040 -0.869240 
-0.725310 1.167400 -0.269560 
0.606680 -0.199920 -1.048400 
0.478520 1.084600 -0.500600 
-0.082117 -1.202200 -0.639670 
-0.361370 -1.151700 -0.320710 
0.087248 -1.165000 -0.336130 
0.613500 -0.954250 -0.736080 
0.421930 0.227680 -0.864610 
0.265740 -1.292600 -1.375000 
0.384880 1.039000 -0.965550 
0.339660 0.421570 -1.204800 
-0.720280 1.229400 -0.223590 
0.302260 -0.931690 -0.531360 
0.340940 0.860310 -0.624180 
0.536720 -0.814700 -0.321420 
0.455230 0.144530 -1.134600 
0.309350 -1.084400 -0.996600 
0.107780 -1.267100 -0.153020 
-0.574550 0.946860 -0.384820 
0.150340 1.180100 -0.578970 
-0.155850 -0.930410 -0.569470 
0.109850 1.707500 -0.018333 
0.394640 1.034900 -1.271600 
0.652060 -0.146340 -0.610210 
0.727900 -1.012600 0.110440 
-0.852330 0.443750 -0.935700 
0.636570 -0.780090 -0.675220 
-0.675690 -1.006100 -0.324230 
-0.785750 1.061100 -0.044543 
0.399280 1.388700 -0.182310 
0.449260 -0.863580 -0.458030 
-0.861730 0.777050 -0.051292 
0.692420 0.065232 -0.670560 
0.173520 1.672600 -0.036970 
-0.826610 1.015300 -0.021052 
-0.823960 0.253080 -0.925730 
0.157700 -1.126600 -0.784010 
0.566500 0.087450 -0.738980 
-0.056394 -1.297100 -1.565100 
-0.319530 -0.418520 -1.071900 
-0.199590 -1.135000 -1.059300 
0.937630 -0.193960 -0.050616 
0.345200 -0.894220 -0.505280 
0.691450 1.208900 -0.208680 
-0.230100 -0.916800 -0.478130 
-0.042783 -0.834420 -1.436900 
-0.637160 -0.771910 -0.306280 
0.771790 0.926950 -0.241300 
0.552280 0.163930 -0.579790 
-0.111370 -0.733410 -0.909410 
-0.566010 1.243900 -0.958730 
-0.683410 1.519000 0.066769 
-0.685290 1.274100 -0.170970 
0.473460 0.476830 -0.522890 
0.291150 0.862220 -1.206800 
-0.769450 0.686490 -0.182090 
-1.052300 0.351890 -0.021898 
-0.749860 -0.258990 -0.214960 
0.463000 0.647910 -1.690900 
-0.481690 -1.011300 -0.337830 
-0.764410 0.591610 -0.517680 
-0.049400 1.537500 0.021156 
-0.665820 0.522650 -1.343500 
0.602660 -0.209710 -0.470560 
-0.304070 -0.445680 -0.902580 
0.673330 -0.471310 -0.166560 
0.580200 -0.476190 -0.945440 
-0.589920 0.751760 -0.496520 
0.356340 0.350710 -1.101800 
0.101260 -1.427900 -0.395750 
0.301140 0.645510 -0.970500 
0.162830 1.177200 -1.149500 
0.958440 0.079291 -0.152300 
0.726070 -0.141700 -0.262120 
-0.618890 0.889890 -1.253200 
0.488110 -0.897910 -0.053347 
0.476130 0.783040 -1.677900 
0.729000 -0.086525 -0.729900 
0.138630 -1.281500 -0.275770 
0.780870 0.338080 -0.307460 
-0.255910 -1.397000 -0.185960 
-0.694650 0.270870 -0.511550 
-0.077479 -0.766730 -1.387300 
-0.417870 -0.312610 -1.099900 
0.530570 0.143930 -0.656110 
0.374560 -0.951370 -0.079606 
0.377330 -0.868210 -0.273200 
-0.000746 1.628100 0.023395 
-0.229310 -1.168200 -0.569050 
0.735870 -0.792070 0.044128 
0.024908 -1.211400 -0.935470 
0.832040 0.300920 -0.277680 
-0.625440 1.210200 -0.759610 
0.940020 -0.925390 0.098954 
1.031500 -0.815200 0.079585 
0.732020 -0.246480 -0.183900 
0.324140 0.494510 -1.208900 
0.171090 -1.219600 -1.395100 
0.372070 1.470600 -0.142050 
-0.624580 1.175400 -1.119000 
-0.191970 -0.580590 -1.550900 
-0.020610 -0.922960 -1.269500 
-0.076111 -0.769490 -1.301700 
0.818050 0.031524 -0.322180 
-0.697220 -0.663450 -0.282330 
0.872440 0.892700 -0.248910 
-1.003100 -0.108620 -0.028185 
0.256510 -1.306300 0.109060 
0.579190 -0.577050 -0.309940 
-1.094800 0.988200 0.029147 
0.585980 -0.259550 -1.061800 
-0.436160 -0.808420 -0.385300 
0.291550 1.638500 -0.084269 
0.397560 0.641680 -1.612400 
-0.789200 1.118000 -0.052809 
0.357740 -0.974740 -0.667960 
-0.058401 -1.293700 -1.519900 
0.387320 1.040600 -1.051200 
0.481820 1.192900 -1.069600 
-0.267900 -0.635200 -0.633340 
-0.797400 -0.758250 -0.280900 
0.047026 -1.245100 -1.086800 
-0.602940 0.739960 -1.226000 
-0.120790 -0.705640 -1.339100 
-0.219180 -1.136200 -0.667700 
0.772700 1.119000 -0.206410 
0.706160 -0.304500 -0.198220 
-0.189080 -1.530800 -0.135560 
-0.508410 1.630300 0.086314 
0.453150 1.530700 -0.142880 
0.766810 -0.963150 0.106160 
-0.573400 -0.315240 -0.410370 
1.099100 0.089479 -0.121940 
-0.125850 -1.094700 -1.309700 
-0.288860 -0.464900 -1.199700 
0.628620 -0.764980 -0.805580 
-0.588190 -0.257080 -0.408150 
0.602080 0.946700 -0.284080 
0.334400 1.001000 -1.192900 
-0.806810 0.820730 -0.075551 
-0.654070 0.587790 -0.973570 
0.252790 -1.100500 -0.025420 
-0.462420 -0.756740 -0.379770 
-0.384370 -0.507410 -0.558620 
0.913510 -0.745900 0.083347 
0.091702 -1.267200 -1.119800 
0.167930 -1.378400 -0.999230 
-0.829170 1.493300 0.035838 
0.577700 1.494300 -0.159950 
-0.362370 -0.364070 -1.066800 
0.834280 0.946490 -0.237340 
-0.057319 1.291100 -0.433010 
-0.884830 1.443700 0.025875 
-0.731090 -0.071771 -1.092700 
0.018630 -1.547100 -0.122290 
1.033800 0.035317 -0.103400 
0.175220 1.361700 -0.315060 
0.753420 -0.875830 0.082804 
0.467160 1.235200 -0.822370 
-0.880420 0.566330 -0.208060 
-0.812300 0.212870 -0.889910 
0.219610 -1.288200 -0.770060 
-0.713780 1.156600 -0.331680 
0.383940 0.286190 -0.956710 
0.706970 0.140510 -0.407640 
0.453050 0.151840 -0.995980 
-0.966660 0.105180 -0.017095 
-0.042893 1.436300 -0.919150 
0.481240 0.499850 -1.687500 
-0.827260 0.603730 -0.238780 
0.260460 -1.090600 -0.908190 
-0.516250 1.210200 -0.324530 
0.879600 0.829190 -0.260480 
-0.970710 -0.031756 -0.019328 
-0.049580 -0.859210 -0.962000 
0.654180 -0.787450 -0.890000 
-0.587810 0.723870 -1.060900 
-0.023474 -0.992230 -1.367400 
-0.036561 1.314700 -0.202030 
-0.125560 -1.272500 -1.395900 
0.341930 1.237700 -1.435700 
0.117680 -1.083700 -0.511060 
0.436910 0.735590 -0.481630 
0.337370 0.998080 -1.238900 
0.333830 0.780080 -1.458100 
0.962460 0.029151 -0.129050 
-1.001000 0.162960 -0.010593 
-1.121600 0.479050 -0.003902 
0.744450 -0.060084 -1.014600 
-0.544220 0.938920 -0.627610 
0.297150 0.939970 -0.879280 
-0.756810 0.866730 -0.101950 
0.550360 -0.357790 -0.654750 
0.180460 -1.124400 -0.839090 
-0.580190 1.004900 -0.416380 
1.065100 -0.140990 -0.038885 
0.375210 0.366170 -0.825560 
-0.671420 0.777470 -0.246790 
0.765530 0.226630 -0.305970 
-0.611490 -0.143860 -0.409870 
0.177710 1.135900 -0.649450 
-0.543840 1.282600 -0.043035 
0.539210 1.184200 -0.592530 
-0.073170 -0.783420 -1.044500 
-0.247140 -0.702070 -0.599680 
-1.019900 1.178500 0.023870 
-0.864130 0.288200 -0.986150 
0.496930 -1.060700 0.079804 
0.760280 -0.246300 -0.152450 
-0.426320 1.558600 0.085235 
0.595310 0.237670 -1.684600 
-0.520390 1.425800 0.057869 
0.529810 -0.876540 -0.530650 
0.497970 1.124300 -0.732360 
-0.057997 1.425300 -0.759980 
-0.458390 -0.423670 -0.514450 
-0.206000 -1.016700 -0.491460 
0.380350 0.567010 -1.564900 
0.684260 0.841790 -0.275040 
-0.028302 -0.929460 -1.140300 
-0.717600 -0.007199 -0.906760 
0.561670 -0.837210 -0.475870 
0.626020 -0.769240 -0.627850 
-0.817890 0.335230 -0.207630 
-0.192200 1.251500 -0.187180 
0.098262 -1.236300 -0.267910 
0.715420 0.027186 -1.321600 
-0.673760 1.143200 -1.249800 
0.791130 0.394270 -0.308890 
0.714560 0.260410 -0.341640 
-0.592270 1.280900 -1.083800 
0.230130 -1.008800 -0.608410 
-0.074860 -0.790900 -0.956340 
0.714880 -0.385860 -1.344300 
-0.822720 0.888130 -0.046985 
0.666700 -1.313800 0.155850 
0.440710 1.276100 -0.479290 
1.000400 -0.881460 0.087330 
-0.606350 1.100600 -1.045600 
-0.262340 -1.310100 -0.261160 
-0.370470 1.187000 -0.564800 
0.281020 -1.285700 -1.020600 
0.641680 -0.308940 -0.304390 
-0.551780 0.873610 -0.603470 
0.632390 0.058607 -0.950140 
-0.135020 -0.973570 -0.616420 
0.669010 -0.525860 -0.142790 
-0.415510 -0.456870 -0.553130 
0.381550 0.347630 -1.399900 
0.647120 0.041257 -1.290000 
-0.028801 1.435100 -0.873670 
-0.249240 1.239600 -0.181330 
-0.311720 1.273000 -0.102640 
0.268000 1.122600 -0.772910 
0.154670 -1.426000 -0.365320 
0.302400 0.938410 -1.200900 
0.439020 -0.930770 -0.050683 
0.383620 0.370570 -0.782910 
0.553350 -0.950520 0.036052 
0.461100 1.187100 -1.276200 
-0.662370 1.243600 -0.458600 
-0.760730 1.151000 -0.118080 
0.424350 1.285800 -0.360990 
-0.317090 -1.048100 -0.369590 
-0.747000 0.002215 -0.193660 
0.327410 -1.218800 -1.154600 
-0.604260 1.324100 -0.801750 
0.382270 -0.863290 -0.412210 
-0.481190 -0.247980 -0.688580 
-0.340970 -0.714800 -0.483840 
1.168100 -0.293860 -0.011889 
0.114120 -1.135400 -0.626350 
-0.086246 -0.998600 -0.858980 
-0.047411 -1.000900 -1.148700 
0.611680 -0.626420 -0.223910 
0.612370 -0.186100 -0.932820 
-0.091268 -1.047400 -1.208100 
0.175890 -1.330600 -0.284210 
-0.299760 -1.287700 -0.276650 
0.605870 -0.697890 -0.938430 
0.620000 -0.751630 -0.760510 
-0.074744 -0.775620 -1.174000 
0.827680 -0.928160 0.106410 
0.573830 -0.775960 -0.284310 
0.431350 0.714680 -1.650800 
0.344960 1.208100 -0.433180 
-0.722700 -0.166370 -1.304200 
-0.993880 1.017500 0.026994 
0.449260 1.075700 -1.129500 
0.557660 -0.393330 -0.545120 
0.528780 0.557880 -0.435130 
0.602170 -0.574290 -0.244860 
-0.798040 1.328700 0.014064 
0.435310 1.231100 -1.090300 
-0.935650 0.800890 -0.007688 
-0.568030 0.877400 -0.435340 
-0.076675 1.454400 -0.852860 
-0.699970 0.849310 -0.167550 
0.544120 -0.493900 -0.765690 
-0.199910 1.318200 -0.087960 
-0.578480 -1.171100 -0.324170 
0.665950 -0.194930 -0.311470 
0.531470 0.158610 -1.600900 
-1.045300 0.287670 -0.015085 
0.604290 -0.730980 -0.858000 
0.171560 1.545100 -0.065661 
0.852200 0.048367 -0.254710 
0.545220 -0.650500 -0.722350 
0.674730 0.901430 -0.265240 
0.568390 1.193500 -0.460820 
-0.164350 -1.153900 -1.317900 
-0.765080 0.350730 -0.335510 
-0.031579 -1.182200 -0.549960 
-0.548160 0.998760 -0.608430 
0.309190 0.854930 -1.352500 
0.641100 0.048505 -1.160500 
0.610240 0.887870 -0.294560 
0.691130 -0.125130 -0.446320 
-0.459630 -0.594730 -0.422860 
-0.729740 0.250850 -0.729350 
0.607410 -0.869270 -0.611970 
-0.108320 -1.098800 -1.393600 
-0.624480 1.240700 -1.140000 
0.735070 -0.108730 -0.327690 
-0.575420 -0.394580 -0.381700 
-0.066836 -0.872450 -0.833240 
0.158390 1.215200 -1.221200 
0.918180 0.473650 -0.293520 
0.874300 0.010044 -0.202920 
0.584850 0.045368 -1.390500 
0.197780 1.306300 -0.320490 
0.464660 -0.878830 -0.105340 
-0.432150 -0.646660 -0.429090 
0.529050 0.812300 -0.364430 
0.319150 0.566440 -1.312600 
0.499990 1.092900 -0.430200 
0.397260 0.275550 -1.341500 
0.383790 -0.877220 -0.215690 
0.497020 0.360980 -1.637800 
0.752320 -0.081858 -1.331600 
-0.087967 -0.807380 -0.826750 
0.364520 1.229100 -1.226400 
-0.647210 -0.963620 -0.321200 
0.061237 1.602700 0.001745 
0.692030 -0.341820 -1.394200 
0.816050 -0.370420 -0.062024 
-0.095377 1.424700 -0.021875 
0.114260 1.350600 -0.463030 
-0.653100 1.314500 -0.056241 
0.932640 0.371160 -0.271620 
-0.618250 0.664210 -1.308100 
0.117150 1.283900 -0.605080 
-1.067800 0.215070 0.000653 
-0.776160 -0.002789 -0.913990 
0.478400 -0.944980 -0.701480 
-0.642890 1.609000 0.070689 
0.014378 1.467100 -0.034668 
0.448870 1.184000 -1.362100 
-0.714470 1.116600 -0.243520 
0.917070 -0.827010 0.095673 
0.379170 1.335600 -0.213810 
0.243920 -1.058300 -0.759800 
0.745510 -0.042175 -0.818470 
0.054537 -1.242900 -0.497960 
-0.727130 -0.036285 -1.013800 
0.146310 1.439300 -0.191980 
-0.246900 1.176100 -0.457130 
0.106190 -1.098400 -0.366940 
0.515780 1.184700 -0.730770 
0.648690 1.076600 -0.235820 
0.366100 0.979110 -1.423500 
-0.039918 -0.845830 -1.179200 
-0.382240 -0.343590 -0.891020 
-0.630300 0.587320 -1.357600 
-0.105410 -0.958670 -0.688010 
-0.666470 1.245500 -0.401120 
0.117040 -1.236500 -1.540300 
0.160490 -1.596700 0.003652 
0.601200 -0.181240 -0.623780 
0.701330 -0.116210 -1.119900 
0.461200 0.988610 -0.407000 
0.901080 0.526300 -0.296900 
-0.572390 -1.049500 -0.327620 
0.828190 0.751290 -0.271700 
0.345790 1.230600 -1.393500 
0.666400 -0.821530 -0.816250 
-0.748720 0.355780 -0.403130 
-1.238100 0.692880 0.007351 
-0.906060 1.261000 0.025843 
0.671850 -0.137380 -0.834050 
0.146410 -1.663300 -0.027070 
0.294990 1.223900 -1.360200 
0.718560 -0.096458 -0.847900 
-0.373690 1.248800 -0.702220 
0.447910 1.074600 -1.215000 
0.638430 -0.230380 -1.341000 
0.252390 1.196600 -1.281500 
-0.211780 -0.968140 -0.479760 
-0.136450 -1.163300 -1.489200 
-0.811180 0.179110 -0.836670 
-0.157210 -1.084200 -1.181900 
0.784120 -0.041381 -1.565900 
0.402560 0.969540 -1.511900 
0.490570 0.869210 -0.384630 
0.500920 0.148230 -1.511200 
0.344580 -1.097700 0.039588 
-0.487830 -0.543210 -0.415590 
-0.625520 -0.168240 -1.114300 
0.732050 0.377620 -0.332760 
0.302370 0.720720 -0.834020 
-1.098300 -0.135200 -0.029575 
-0.104560 -1.004000 -0.780610 
0.241370 1.184800 -0.411710 
0.283820 0.866550 -1.062800 
-0.555270 1.055700 -0.733570 
-0.278660 -0.459350 -1.492700 
-0.513340 -0.234350 -1.066000 
0.326830 1.172500 -0.702200 
0.678020 -0.871470 -0.785700 
-0.669590 1.082000 -1.265700 
-0.565000 -0.197750 -1.076900 
-0.120860 -0.707340 -1.296200 
0.381350 1.010000 -1.681400 
0.350600 1.227400 -1.351200 
0.490240 0.415200 -0.522580 
-0.772840 0.934420 -0.070204 
0.085835 -1.473800 -0.238520 
0.626030 0.047914 -1.608600 
-0.383510 -0.398430 -0.692200 
0.016988 1.366200 -0.460540 
-0.691650 0.606200 -0.677330 
-0.710050 -0.366650 -0.263230 
-0.704910 0.162470 -0.380230 
-0.305790 1.225900 -0.178880 
0.438720 0.863890 -0.443910 
0.626330 -0.346370 -1.239400 
0.288630 0.792260 -0.879140 
0.481680 1.449300 -0.167710 
-0.842200 0.162670 -0.879780 
-0.112670 -1.274900 -1.532200 
0.608630 -0.730320 -0.188000 
0.734210 0.014209 -0.825670 
0.635440 -0.683400 -0.145760 
0.413150 0.212920 -1.045700 
-0.493300 1.409000 -0.849660 
0.385950 1.040000 -1.008200 
-0.708800 0.313970 -0.627020 
-0.858610 0.900320 -0.024307 
0.382170 -1.042800 0.019159 
0.409650 0.350500 -1.500700 
0.405540 0.380970 -0.701180 
-0.116670 -1.274800 -1.486100 
0.602000 -0.844320 -0.021593 
-1.054800 0.972760 0.030571 
0.458160 0.539640 -0.522280 
0.293610 1.262700 -0.269970 
-0.164510 -0.649930 -1.207700 
0.389370 1.133400 -1.644400 
-0.527100 1.218200 -0.178370 
-0.828740 0.377670 -0.275520 
0.568560 -0.431430 -0.437620 
0.558610 -0.399530 -0.846180 
1.178400 -0.222020 -0.029220 
-1.037300 0.770270 0.016899 
0.414840 0.208920 -1.140200 
0.595500 0.373050 -1.689400 
0.432150 -1.045000 -0.787940 
-0.560570 0.875390 -0.477060 
0.302950 0.641860 -1.214100 
-0.532550 -0.166150 -0.622910 
0.323990 -0.891600 -0.312350 
-0.676830 0.520650 -1.252400 
-0.409450 -0.317030 -1.058500 
0.344550 0.430080 -0.916540 
0.157320 -1.079600 -0.674490 
0.601050 -0.742860 -0.473460 
0.222370 1.528600 -0.090595 
0.694500 -0.768710 0.002746 
-0.544600 -0.360970 -0.431430 
-0.909920 0.415970 -0.178320 
-0.054047 -0.862960 -0.918450 
0.294820 0.786410 -1.260500 
0.199840 1.257200 -1.345100 
-0.126290 -1.335800 -0.209240 
0.200540 1.444800 -0.164140 
0.593960 0.263590 -0.452700 
0.823240 -0.564340 0.008785 
0.227600 -0.963000 -0.359800 
-0.712300 0.915940 -0.129640 
-0.255740 -0.864940 -0.481670 
0.023987 1.346600 -1.114800 
0.431670 0.570900 -1.654200 
-0.705850 0.062598 -0.562890 
0.831800 0.457850 -0.301510 
0.652740 -0.232000 -1.410400 
-0.805320 0.644910 -0.191100 
0.196480 -1.237500 -0.833630 
-0.523610 1.350300 -0.712750 
-0.079984 -1.353200 -0.203000 
-0.579180 -0.075543 -0.623830 
0.356810 0.435810 -0.827590 
0.888180 0.112390 -0.215200 
-0.053197 -1.046500 -1.469000 
-0.244790 1.189300 -0.317350 
-0.651730 -0.004959 -0.668400 
0.171200 1.149700 -1.075100 
0.996890 -0.020731 -0.091410 
0.150070 -1.493100 0.006481 
-0.239990 -1.280200 -0.315100 
0.314890 0.567090 -1.262100 
0.442230 1.038000 -0.485210 
0.526110 1.294800 -0.414710 
0.536150 -0.547540 -0.755710 
-0.543760 -0.599860 -0.356410 
-0.807880 0.557340 -0.589640 
-0.983870 0.298040 -0.041227 
-0.804150 0.455980 -1.094100 
0.486040 1.614000 -0.139860 
0.581690 -0.705260 -0.758800 
0.312330 1.155700 -0.809910 
-0.200310 -0.820270 -0.565980 
0.646550 0.096453 -0.586940 
-0.886360 0.615420 -0.129620 
-0.852580 0.714210 -0.082493 
-0.747100 0.206330 -0.706330 
-0.839580 0.415650 -0.379170 
0.726290 -0.419920 -0.127280 
-0.911270 0.058232 -0.040229 
0.703880 -0.110450 -1.042500 
0.203800 -1.289300 -0.600820 
-0.414770 1.343400 -0.806760 
0.565110 -0.821570 -0.098886 
-0.676430 -0.205780 -0.287290 
-0.308920 -1.404100 -0.194070 
0.434410 0.238940 -0.779280 
0.109490 -1.089600 -0.440180 
0.110510 -1.197700 -0.564630 
0.754130 1.396100 -0.189130 
-0.137330 1.210500 -0.479630 
-1.007700 -0.176840 -0.051438 
0.355030 1.671200 -0.107380 
0.991970 -0.077034 -0.071584 
-0.232240 -1.344700 -0.220080 
0.743820 -0.002892 -1.063600 
-0.673940 1.195600 -0.551800 
0.291140 -1.238500 0.100530 
-0.033831 -0.931430 -1.054900 
-0.616010 1.277100 -0.532750 
-0.163170 -0.642170 -1.378000 
0.592970 -0.929340 -0.686610 
-0.728580 1.332400 -0.007591 
0.504630 0.088341 -1.128500 
0.545360 -0.597010 -0.473930 
0.967340 0.426490 -0.284660 
0.137360 -1.256500 -0.034087 
0.398370 0.298210 -0.823550 
0.541760 -0.820680 -0.374830 
0.402360 -0.977190 -0.026933 
-0.185290 -1.277800 -0.330090 
0.688820 0.029922 -1.553500 
-0.622610 -0.025675 -0.728580 
0.577320 -0.315780 -1.030700 
-0.044442 -1.195300 -0.471760 
-0.519780 1.305300 -0.617810 
0.384340 1.037800 -0.923370 
0.149870 -1.248000 -0.495110 
-0.735640 1.131800 -0.179690 
-1.158100 0.940140 0.024735 
1.170300 0.086219 -0.131100 
0.663050 0.236070 -0.388410 
0.092106 -1.664900 -0.058512 
0.576130 -0.421640 -0.954240 
0.559070 -0.289510 -0.605820 
1.189000 -0.088168 -0.066624 
0.365110 1.237100 -0.374790 
0.718700 -0.114210 -0.366530 
0.321980 0.932580 -0.707020 
-0.240910 -0.537220 -1.077900 
-0.060983 1.624200 0.038354 
-1.117400 0.926140 0.028997 
0.592590 -0.643910 -0.945180 
0.841410 0.354090 -0.286800 
-0.582440 1.207800 -1.040400 
-0.420160 1.210400 -0.161460 
0.647620 0.348900 -0.385520 
-0.624370 0.736020 -1.375700 
0.761030 -0.024453 -1.390800 
-0.611160 0.660390 -1.185700 
0.712260 0.029945 -1.279000 
-0.743900 1.189100 -0.177470 
-0.874310 0.371050 -0.180660 
-0.646320 0.811540 -1.376100 
-0.324420 -0.612120 -0.566250 
0.609890 -0.786660 -0.086193 
0.594890 1.005200 -0.275260 
0.401450 0.452900 -0.663480 
0.009497 1.362500 -0.172150 
-0.081067 1.247600 -0.324940 
0.550520 0.163650 -1.643900 
-0.793980 0.438010 -1.152600 
0.751000 -0.026262 -0.662060 
0.458430 0.901690 -1.707000 
0.423370 1.226200 -1.212600 
0.571010 0.166730 -1.685400 
-0.991320 0.357660 -0.053813 
-0.571430 0.825400 -0.786210 
0.585320 1.203000 -0.398040 
-0.676780 0.713900 -0.291860 
0.794370 0.998420 -0.227540 
-0.423360 -0.364000 -0.647630 
-0.083588 1.241500 -0.382910 
0.589050 0.822480 -0.321040 
0.427420 0.232970 -0.821470 
-0.855220 1.221600 0.005104 
-0.994640 0.883640 0.021162 
-1.109600 1.067900 0.024118 
-0.189070 1.217000 -0.268500 
0.310350 0.568460 -1.162100 
-0.007312 -1.226700 -0.385440 
-0.578800 0.795290 -1.060700 
0.342570 0.420790 -1.254800 
0.309720 0.721460 -0.790000 
0.295900 0.715520 -1.214200 
0.096840 -1.222100 -0.343860 
-0.767410 -0.484180 -0.241710 
-0.575750 0.780740 -0.952170 
-0.464300 1.449800 0.061961 
-0.216180 1.432000 0.011496 
0.713560 0.202740 -0.352280 
0.680560 -0.975180 0.092893 
0.226310 -1.347200 -0.773370 
0.246290 -1.293500 -0.899300 
-0.090345 1.378900 -0.060883 
0.811680 0.874490 -0.249250 
0.275470 -0.929570 -0.301490 
0.390320 1.238200 -0.946760 
0.676210 -0.171170 -1.518100 
0.375770 0.778720 -1.553400 
-0.014749 1.393000 -0.963830 
-0.752230 0.239840 -0.786420 
-0.578120 1.365200 -0.947160 
-0.026788 -0.979880 -1.547000 
0.025868 1.398900 -0.839790 
0.557300 1.310600 -0.328850 
0.765800 -0.546850 -0.033972 
0.503780 0.107450 -0.862540 
0.166370 1.340800 -0.369670 
0.680770 -0.498190 -1.181100 
-0.565020 1.074800 -0.911270 
0.737440 0.009001 -0.904560 
-0.791710 -0.664780 -0.262510 
0.546520 1.447400 -0.170180 
0.323240 0.498370 -1.012600 
-0.584240 1.024300 -0.950470 
-0.733410 0.359020 -0.541010 
0.843260 0.149280 -0.255690 
0.018004 -1.197900 -0.499640 
-0.396270 -0.426260 -0.619900 
0.576820 -0.781540 -0.367240 
-0.038834 -0.839200 -1.307600 
-0.410380 -1.447300 -0.225140 
0.386190 -1.136600 0.085888 
0.728840 0.605650 -0.311210 
0.783710 0.008742 -0.431690 
-0.554240 -0.112650 -0.644460 
-0.982080 0.694110 -0.014494 
0.175310 1.197800 -0.479720 
-0.453450 1.681100 0.086419 
-0.536050 1.249900 -0.094222 
-0.266820 1.370400 -0.018277 
0.554290 -0.509190 -0.834620 
-0.512400 1.227800 -0.409480 
0.629250 0.063165 -0.867340 
0.140140 -1.437800 -0.044162 
-1.193000 0.413450 0.002354 
-0.235900 -0.518890 -1.499100 
0.707070 -0.114270 -0.593520 
0.073424 1.379000 -0.377880 
-0.604030 0.886840 -0.312980 
0.648550 -0.498330 -1.128700 
0.642650 0.046084 -1.203400 
0.538800 -0.545050 -0.475280 
0.397530 1.032300 -1.316800 
0.704530 0.043623 -1.071100 
0.427620 0.644620 -1.654800 
-0.725300 0.469740 -1.322900 
-0.575280 -0.079105 -0.821960 
0.837960 -0.134540 -0.133310 
0.047309 -1.206900 -1.368700 
-0.042901 1.482900 -0.001825 
0.337380 -1.585700 0.134650 
0.534100 -0.864010 -0.060628 
0.393990 0.730100 -0.549770 
-1.032800 1.034300 0.029254 
-0.424110 1.192700 -0.526500 
0.334410 0.710570 -1.463500 
-1.046600 1.114700 0.025737 
-0.827820 0.765990 -0.078358 
0.393830 0.860970 -0.511190 
0.387310 0.275760 -1.242900 
0.129170 -1.332900 -1.067400 
0.085604 -1.310000 -0.962620 
1.008900 -0.265800 -0.010890 
-0.469490 1.228300 -0.518460 
-0.230160 -0.768020 -0.567310 
-0.750570 0.342470 -0.744650 
-0.729340 1.042200 -0.098641 
-0.621840 -0.364270 -0.340280 
0.666100 0.960530 -0.254000 
0.208350 -1.264500 -1.249200 
-0.623090 1.265700 -0.771450 
0.753810 -0.061252 -0.532400 
-0.091067 -1.263900 -0.292970 
0.417260 1.024500 -1.452600 
0.301140 0.857670 -1.303800 
0.176250 1.620300 -0.038742 
-0.025575 -0.983750 -1.502900 
-0.121720 -1.274600 -1.440500 
0.090932 -1.179300 -0.259580 
0.332370 0.930850 -0.665590 
0.305700 0.862670 -0.747880 
0.497900 -0.902540 -0.609420 
-0.196510 -1.084000 -0.927440 
0.887860 -0.315810 -0.034470 
-0.200740 -1.162100 -0.820180 
-0.739620 0.351070 -0.677940 
-0.056911 -0.998760 -1.064200 
0.543460 0.366560 -1.669600 
0.692840 0.027775 -1.597500 
0.353280 0.419880 -1.355800 
0.622610 0.044083 -1.653000 
0.015583 1.423900 -0.073642 
-0.567850 1.013000 -0.878090 
0.321590 0.575230 -0.876310 
-0.038834 -0.841300 -1.264800 
0.640240 -0.253290 -0.325990 
-0.391510 -0.345290 -1.312600 
0.162250 1.255600 -0.465550 
0.639740 -0.776810 -0.848930 
0.443740 1.373900 -0.208810 
0.326130 1.003100 -0.967270 
0.783040 -0.820610 0.075458 
0.771480 0.282400 -0.304720 
0.654490 -0.229060 -1.480600 
-0.720510 0.315340 -0.393200 
0.615900 -0.470060 -0.264940 
0.579630 1.324400 -0.274270 
0.201020 1.209900 -1.273400 
0.307390 1.443300 -0.141880 
-0.488880 -0.940610 -0.345780 
-0.579780 0.750340 -0.583100 
0.373080 0.639760 -1.565300 
0.290170 0.718490 -1.019200 
0.615420 -0.205100 -0.429810 
0.269880 1.502100 -0.112120 
0.752970 0.006849 -1.585900 
-0.108960 1.531100 0.032758 
-0.132570 -1.262500 -1.309400 
0.569410 -0.634870 -0.890620 
-0.774720 0.594230 -0.437360 
-0.233000 -0.576060 -0.824410 
0.553040 1.187300 -0.525750 
0.410270 1.253000 -0.570280 
0.572490 -0.636250 -0.412600 
0.209170 -1.287600 -0.669310 
0.645620 -0.156270 -1.105200 
0.316530 0.573630 -0.921810 
-0.277840 -1.256500 -0.326570 
-0.670150 1.342400 -0.006102 
-0.669200 -0.071096 -0.323210 
0.298570 1.182600 -0.419140 
-0.423280 1.179100 -0.474010 
-0.577170 0.751170 -0.626380 
0.539410 -0.462800 -0.622200 
-0.574590 1.352500 -0.753640 
-0.945070 0.310850 -1.169400 
-0.608850 0.656050 -1.121400 
0.498150 1.189500 -0.875920 
0.415840 0.309270 -0.739800 
-0.914540 0.366010 -0.123570 
-0.737710 0.138550 -0.241840 
0.378070 1.072900 -1.658400 
0.930530 -1.003300 0.100840 
-0.072871 -1.048800 -1.293700 
0.202830 1.149900 -0.543550 
0.159180 1.483500 -0.120220 
0.185090 -1.401000 -0.671040 
0.710120 0.032729 -1.236900 
-0.136200 -1.255200 -1.267000 
-0.693760 -0.056720 -1.031500 
1.018600 0.329740 -0.250790 
-0.083300 1.305600 -0.156560 
0.689500 1.027600 -0.232090 
0.083338 1.216700 -0.788200 
-0.744920 -0.892050 -0.308490 
0.620290 -0.396230 -1.165300 
0.381130 0.281020 -1.049700 
0.486250 1.132000 -1.039900 
-1.106300 -0.013260 0.004334 
0.069872 -1.301900 -0.618010 
-0.979460 1.328600 0.016479 
-0.575750 1.335100 -0.704030 
-0.896090 0.913450 -0.005228 
0.409040 0.905320 -1.571400 
0.392450 1.037100 -1.226900 
-0.198580 -1.176300 -0.747820 
0.646260 -0.744530 -0.073324 
0.494730 0.200580 -0.657390 
0.591760 -0.214950 -0.511690 
0.631700 0.768550 -0.310890 
-0.602270 -0.112990 -0.991250 
-0.465780 1.355200 -0.763780 
0.592690 -1.061200 0.102740 
0.624850 0.520550 -0.371490 
0.425450 1.023500 -1.498300 
-0.283860 1.473200 0.046779 
0.747800 -0.014908 -1.224800 
0.382940 -0.923440 -0.619690 
-0.827810 0.651380 -0.154790 
0.291620 0.717320 -1.116200 
0.290810 0.787950 -1.211500 
-1.193500 0.483700 0.004085 
-0.691680 1.382100 0.032586 
-0.610050 0.651700 -1.054000 
-0.151420 -0.668810 -0.952250 
0.644010 1.188000 -0.244420 
-0.901850 0.467110 -0.231990 
-1.263600 0.414200 -0.002152 
0.319670 0.791860 -0.705130 
-0.571840 1.242700 -0.243220 
-0.666830 -0.020054 -0.890110 
0.506060 -0.988220 0.039872 
-0.065044 -1.048500 -1.336800 
0.310700 0.571050 -1.015600 
-0.197260 -1.600600 -0.139210 
0.419230 1.250500 -0.762750 
-0.318480 1.212800 -0.659700 
0.599220 -0.276920 -1.171500 
-0.050901 1.288300 -0.375480 
0.354470 0.990840 -0.669500 
-0.563290 0.811290 -0.574020 
0.508360 0.085069 -1.219500 
0.908320 -0.453910 0.013026 
0.539220 -0.496850 -0.512040 
0.063416 1.480100 -0.061082 
0.111030 -1.198700 -1.386400 
0.426010 1.078100 -1.577300 
0.772820 0.444190 -0.316150 
0.287860 0.789320 -1.162700 
0.608500 -0.175150 -0.582150 
0.569660 0.050970 -1.210900 
-0.423140 1.233600 -0.622530 
-0.643110 -0.009609 -0.608150 
0.806280 -0.135720 -0.161830 
0.326720 1.197500 -1.114400 
-1.186100 0.341150 0.003443 
-0.268150 -0.502290 -0.906000 
-0.455260 -0.311120 -1.423400 
0.343760 0.654000 -0.705050 
0.632430 -0.291790 -1.309200 
-0.604310 1.038400 -1.019000 
-0.745510 0.070109 -0.208970 
0.524730 1.133200 -0.516890 
0.679420 -0.416500 -0.190300 
0.473130 1.043000 -0.414870 
0.659970 -0.250680 -0.288480 
-0.669900 -0.334430 -0.296040 
0.604780 0.131000 -0.543060 
0.505310 0.851920 -1.704700 
0.359220 0.348450 -1.199800 
1.039400 -0.341290 0.010771 
0.167870 -1.036600 -0.565220 
-0.372370 1.226200 -0.658610 
0.397620 1.032700 -0.677550 
-0.072067 -0.996150 -0.939750 
0.643470 -0.595710 -1.049600 
-0.472380 -1.245800 -0.288650 
-0.872380 0.202250 -0.086708 
-0.936730 -0.521720 -0.207050 
0.459110 -0.999380 -0.752760 
0.136300 -1.537800 -0.021961 
0.512210 0.430430 -1.679100 
0.131090 -1.466300 -0.204420 
-0.922890 0.249640 -0.062164 
0.045629 1.739800 -0.002398 
0.136820 -1.301700 -0.201310 
0.384840 1.235600 -1.554600 
-0.990340 1.242500 0.022958 
0.381950 0.283350 -1.002800 
-0.575700 1.231900 -0.903440 
0.797020 0.130300 -0.310420 
0.354430 1.205600 -0.568520 
0.096631 1.171600 -0.860580 
0.894190 0.966810 -0.239290 
0.290920 0.718970 -0.971550 
-0.710380 0.664890 -0.298730 
0.734240 -0.139340 -1.550100 
-0.677990 1.068200 -0.238320 
0.401750 1.260300 -0.417140 
0.718100 -0.130800 -1.392100 
0.160920 -1.415800 -0.431890 
0.012917 1.372200 -0.517640 
-0.698460 0.952020 -1.345400 
-1.180600 0.878190 0.022051 
0.549410 -0.374260 -0.732490 
-0.304580 1.166000 -0.427210 
-0.371500 -1.457200 -0.203650 
0.071339 -1.368500 -0.580510 
0.539700 -0.810260 -0.210410 
-0.124870 -1.215100 -1.059300 
-0.576180 1.172600 -0.860760 
-0.021434 -1.235100 -1.212100 
-0.252550 1.188500 -0.565400 
-0.153200 -1.026200 -0.634650 
0.025245 1.364200 -0.374360 
-0.078705 -1.265900 -1.259000 
0.433620 1.183700 -1.449700 
-0.850960 0.450100 -0.867660 
0.402110 0.796390 -0.512860 
-0.718270 0.016738 -0.759120 
0.336330 0.849100 -1.449500 
0.647950 -0.400130 -1.228000 
0.052427 -1.228800 -1.446900 
0.704120 -0.119690 -0.406140 
0.591390 -0.684790 -0.416590 
-0.347090 -1.376900 -0.214310 
0.374790 0.927190 -0.546860 
0.472090 0.718870 -1.685400 
0.354760 -1.072000 -0.854960 
0.079004 1.237100 -1.112400 
0.588060 -0.533990 -0.963740 
-0.875080 0.333260 -1.009400 
0.850840 0.408250 -0.293530 
0.567870 0.052912 -1.166700 
-0.827560 0.415620 -0.448730 
-0.702230 0.104310 -0.365420 
-0.575870 1.305500 -0.956040 
0.827120 -1.092300 0.117290 
-0.232650 -0.552560 -0.950940 
0.285540 0.865520 -1.110400 
0.039057 -1.187000 -0.700550 
0.510410 0.119590 -0.777840 
-0.297980 -1.548700 -0.166630 
-0.630110 1.091000 -0.538430 
-0.393670 -0.328330 -0.974760 
1.181900 0.031513 -0.108300 
0.137800 -1.365500 -0.055685 
0.289110 -1.120500 -1.035200 
0.426710 1.022600 -1.545400 
-0.513590 1.263800 -0.517010 
0.614540 1.223500 -0.308390 
1.016000 -0.484450 0.039746 
-0.395760 -1.194700 -0.295570 
0.617020 -0.678850 -0.205750 
-0.974480 0.942130 0.021119 
0.733050 0.019800 -1.451000 
-0.491020 1.295300 -0.023717 
0.445880 1.076600 -1.484700 
0.392230 1.239000 -0.634010 
0.777290 0.062842 -0.404600 
0.564790 0.056772 -1.079200 
0.347160 0.990380 -1.331400 
-0.291020 -0.456890 -1.323600 
0.384320 0.973880 -1.467600 
-0.580560 0.852190 -0.980780 
-0.127040 -1.012900 -0.705520 
0.656900 -0.843300 -0.706010 
-0.621030 -0.515880 -0.318730 
-1.206400 0.262280 0.007065 
-0.612410 -0.210980 -1.189800 
0.306040 0.641040 -1.263800 
0.463890 1.268100 -0.596250 
0.591490 0.045383 -1.435700 
0.279350 1.131500 -0.699230 
0.447470 1.072700 -1.392200 
0.355590 1.227000 -1.309200 
0.926090 -0.026425 -0.126630 
0.679560 -0.130510 -0.486940 
0.170120 -1.238000 -0.704340 
-0.078318 1.741800 0.034685 
0.434120 0.464100 -0.589800 
0.957090 0.324950 -0.251790 
-0.132500 -1.164900 -1.533400 
0.036030 -1.453100 -0.253750 
0.723100 -0.102910 -0.512880 
0.591420 1.119200 -0.278880 
0.529720 1.102600 -0.364290 
-0.163250 -0.652430 -1.165600 
-0.521030 1.370800 -0.757340 
-0.468810 1.185100 -0.296250 
0.747260 -0.034727 -0.740150 
-0.601550 1.224400 -1.091800 
0.565710 -0.462990 -0.877620 
-0.072000 1.310200 -0.544020 
-0.171150 -1.149500 -1.275200 
0.834070 -0.777120 0.078153 
0.778690 -0.040066 -0.415980 
0.474560 1.191600 -1.150900 
0.894430 0.704860 -0.282460 
0.882020 -0.380520 -0.018234 
0.788240 1.341400 -0.195610 
0.566300 0.054862 -1.122900 
-0.911820 -0.076069 -0.052116 
0.719040 -0.927350 0.088326 
0.775890 -0.096418 -1.539800 
0.892430 -1.059300 0.107600 
-0.445680 -0.323620 -1.502600 
0.443480 0.603480 -0.520540 
0.535330 0.431300 -0.463900 
0.219120 -1.251600 -1.321500 
0.694590 0.781920 -0.284300 
0.206830 1.307300 -1.414100 
0.612980 -0.738650 -0.714270 
0.237250 -1.172100 -0.980740 
0.832650 -0.501660 -0.007410 
0.668920 0.591830 -0.334790 
-0.248690 -0.608770 -0.705650 
-0.279080 -1.125200 -0.402980 
0.322470 0.495290 -1.159000 
0.331640 -1.072300 -0.931020 
-0.663470 0.645440 -0.465780 
0.287980 0.864060 -1.158500 
0.290780 -1.615700 0.098121 
-0.357510 -1.020800 -0.360090 
-0.762970 -0.815170 -0.294180 
0.065307 -1.251100 -0.927820 
-0.077636 -0.795610 -0.912450 
0.147450 -1.394900 -0.108340 
-0.873770 0.103610 -0.870860 
0.451320 0.400270 -0.589030 
0.520520 0.219720 -0.582810 
0.639070 -0.159540 -0.458000 
0.506250 1.186900 -0.802360 
-0.960890 -0.161820 -0.056994 
-0.499820 -0.299360 -0.549850 
0.560000 0.303010 -1.661100 
-0.381290 -1.344300 -0.234620 
0.191180 1.412500 -0.211310 
0.565640 0.093489 -1.582900 
-0.553920 1.324500 0.001373 
0.455750 0.159700 -0.906460 
0.595340 1.414500 -0.181100 
-0.079852 -0.764190 -1.518000 
-0.670360 -0.002142 -0.758820 
-0.560970 -0.114080 -0.878690 
-0.703220 0.020149 -0.703730 
-0.022469 -0.989430 -1.412800 
0.564840 -0.356140 -0.921030 
-0.070355 -1.229300 -0.360540 
-0.177490 1.437900 -0.838940 
0.573360 -0.477020 -0.369330 
-0.030962 -0.930650 -1.097600 
-0.136640 1.471000 -0.872260 
0.337130 0.424730 -1.057300 
-0.670350 1.249600 -0.343680 
0.707340 0.038339 -1.153500 
0.550400 0.307610 -0.487680 
0.823220 -0.088367 -0.185640 
-0.522280 1.327400 -0.665460 
-0.249440 1.180200 -0.511930 
0.657520 -0.546270 -1.102900 
0.045314 1.245600 -1.019700 
-0.581690 1.350600 -0.900110 
0.563260 -0.575750 -0.884570 
-0.722170 0.259160 -0.321380 
-0.455210 -0.507210 -0.465120 
0.130490 -1.080500 -0.579020 
0.950160 0.276020 -0.231100 
0.403980 0.568640 -1.611500 
0.234420 1.132100 -1.043000 
0.294790 0.941420 -0.923660 
-0.871400 -0.127240 -0.086624 
0.408680 1.190800 -1.583700 
0.205780 -1.124100 -0.889770 
-0.837230 0.511730 -0.647230 
0.616300 -0.759190 -0.578260 
0.947480 0.127870 -0.175100 
-0.117230 -1.039800 -1.080300 
0.200340 -1.393700 -0.812070 
0.582270 0.571140 -0.387950 
0.631680 -0.702980 -0.982260 
0.871730 -0.651230 0.054555 
-0.081978 -0.801070 -0.869160 
-0.088343 1.241300 -0.440260 
0.169210 -1.388300 0.052111 
-0.575420 0.755720 -0.712280 
0.585740 0.448060 -0.413810 
-0.736040 0.477420 -1.143400 
0.591930 -0.423210 -0.364390 
0.568970 -0.522880 -0.900830 
0.325010 -0.887400 -0.370270 
0.447650 -0.864810 -0.160230 
0.259320 1.183900 -1.241500 
0.328640 -1.016500 -0.704770 
-0.734210 0.012347 -0.812970 
0.680780 -0.397410 -1.286800 
0.744750 -0.073076 -1.171800 
-0.169720 -1.216000 -1.317200 
-0.954960 1.001200 0.020618 
-0.553790 1.062100 -0.805160 
-0.214150 -1.067200 -0.508730 
0.631340 -0.575380 -0.181510 
0.503900 1.237800 -0.649360 
0.322560 0.650370 -0.789400 
-0.742800 1.484300 0.057623 
-0.630290 1.115700 -1.107900 
0.345760 0.565510 -1.465400 
-0.852530 0.420260 -1.063000 
-0.323050 -0.850320 -0.439430 
0.484500 1.276300 -0.533980 
0.515630 0.126900 -0.736470 
0.225090 -1.070700 -0.088567 
-0.220590 -1.444200 -0.158370 
-0.363410 -0.476420 -0.625150 
-0.472030 1.310100 -0.683580 
0.398180 0.711970 -1.608700 
0.402970 0.778180 -1.598700 
-0.256020 1.200300 -0.617180 
0.486370 -0.837570 -0.308030 
-0.326940 1.283400 -0.814150 
-0.617400 1.296100 -0.670140 
0.623880 -0.735230 -0.129700 
0.217190 -1.350500 -0.670540 
0.064900 -1.373900 -0.510630 
0.085076 -1.369700 -0.723910 
0.412470 0.957530 -1.654000 
0.166280 -1.351200 -0.213220 
-0.605380 1.218000 -0.817800 
0.297730 0.863770 -0.790890 
0.279160 -1.072000 -0.829210 
0.281120 -0.939820 -0.239740 
0.599870 -0.714860 -0.613250 
-0.324280 -1.328200 -0.238080 
-0.881370 0.666490 -0.088895 
0.488990 1.363200 -0.235660 
-0.041380 1.363400 -0.569880 
-0.420160 1.167600 -0.362360 
0.569430 -0.301410 -0.956030 
0.300990 0.938240 -0.835370 
-0.024903 -1.187100 -0.865400 
0.567470 -0.644410 -0.474370 
-0.401230 -0.322200 -1.016800 
0.575730 -0.370410 -0.994300 
0.027361 -1.355600 -0.334490 
0.020732 -1.601900 -0.091410 
-0.053305 -1.045600 -1.513500 
0.241000 1.274400 -1.433900 
-0.188830 1.190400 -0.409840 
-0.634720 0.697840 -0.416920 
0.574410 -0.691850 -0.705860 
0.604490 -0.677500 -0.266500 
-0.153410 -1.045900 -0.835150 
0.530250 -0.532230 -0.687860 
-0.234980 -0.546710 -0.993510 
0.549880 1.578600 -0.152920 
-0.348700 -0.448180 -0.697520 
0.329960 1.004300 -1.101500 
0.620830 -0.494320 -1.071500 
0.658210 -0.921100 -0.754760 
0.119750 -1.192900 -0.635120 
-0.660520 1.462200 0.064486 
-0.902840 -0.005307 -0.046483 
0.213990 -1.084700 -0.814130 
0.388770 1.040700 -1.094600 
-0.386890 -0.680380 -0.456620 
-0.018525 -0.917430 -1.357800 
0.293770 0.942470 -0.968530 
0.415120 0.219070 -0.953520 
0.623850 -0.881140 -0.654350 
0.404510 1.075600 -1.619800 
-0.773060 0.237930 -0.205240 
0.550270 -0.828320 -0.426370 
-0.841630 0.957710 -0.022851 
-0.821210 0.560620 -0.435940 
-0.142940 -1.161900 -1.445800 
0.309620 0.570040 -1.063700 
0.447230 1.072800 -1.302600 
0.413670 1.221300 -1.296000 
-0.940460 0.627070 -0.067682 
0.608090 -0.209360 -1.123900 
0.489110 0.144650 -1.464700 
-0.697990 0.220770 -0.469500 
-0.173060 -1.461300 -0.144990 
-0.952490 1.138600 0.025744 
-0.142910 1.218400 -0.534740 
0.907860 -0.133800 -0.085903 
-0.041854 -1.000700 -1.191300 
-0.556960 0.877100 -0.687610 
0.146880 1.241400 -0.527560 
-0.339250 -0.411820 -0.815030 
-0.607940 0.757010 -0.410760 
0.687210 -0.192700 -0.274040 
-0.257490 1.306100 -0.082462 
0.699440 1.277200 -0.197430 
0.762070 -0.085464 -1.413700 
-0.378930 -0.352700 -0.849730 
-0.658090 1.243800 -0.516060 
-0.474050 1.202800 -0.179520 
0.449750 -1.298000 0.168190 
-0.809470 0.101950 -0.124480 
0.503210 0.090272 -1.083400 
0.106380 -1.548100 -0.065096 
0.641160 0.286520 -0.399610 
-0.973190 1.077800 0.026268 
-0.269620 1.275600 -0.798770 
-0.192750 -0.623610 -0.866730 
0.708820 -0.104830 -0.964940 
0.357320 0.349470 -1.150600 
0.610260 -0.368340 -0.355570 
0.600160 0.046022 -1.480100 
-0.069573 1.683000 0.039360 
0.308200 0.783040 -1.359100 
-0.190600 1.189900 -0.466320 
0.832260 -0.006598 -0.268440 
0.093834 -1.225500 -1.193800 
-0.581000 1.320300 -1.005100 
0.163080 1.264400 -1.288400 
0.575440 -0.847100 -0.523240 
0.212830 1.113300 -0.768600 
-0.457580 1.374300 -0.800650 
-0.950630 0.470390 -0.133600 
-0.152490 -0.680600 -0.866230 
-0.634850 0.765660 -0.327010 
-1.006200 0.641830 -0.019979 
-0.601610 0.820670 -0.361310 
0.697670 0.481000 -0.341070 
0.085095 1.187300 -0.970530 
-0.576580 -0.711600 -0.326580 
0.674710 -0.894870 0.060359 
-0.900800 1.180500 0.019041 
-0.840730 0.514230 -0.536960 
0.197060 -1.654700 0.012307 
0.438780 0.423810 -1.603900 
-0.195930 -1.199800 -0.643390 
0.304060 0.646480 -0.923790 
0.736620 0.029938 -0.630560 
-0.640890 -0.109190 -0.365340 
0.640800 -1.102400 0.121470 
0.839110 1.223200 -0.207930 
-0.130910 1.212500 -0.365680 
-0.727190 0.857540 -0.133590 
0.497730 -0.839860 -0.168610 
0.670250 0.034412 -1.465900 
-0.248370 -0.522870 -1.244200 
-0.812690 1.260300 -0.012690 
-0.582010 1.291900 -0.904600 
-0.563770 1.267100 -0.468640 
0.256340 -1.123300 -0.978400 
-0.792350 1.003400 -0.042740 
0.962000 -0.326720 -0.003833 
-0.206030 -0.580760 -1.331300 
0.449440 1.075700 -1.087300 
0.010933 -1.388800 -0.274230 
-0.869120 -0.058590 -0.073465 
-1.197700 0.103060 0.010182 
0.329580 0.501570 -0.919250 
0.201110 1.113600 -0.844790 
-0.633650 -0.302730 -0.335970 
0.062472 -1.305400 -0.543430 
-0.618010 0.660030 -1.367800 
0.677010 0.121080 -0.475930 
-0.046975 -0.934510 -0.927380 
0.508920 -1.253600 0.159450 
-0.075305 -0.773440 -1.216600 
0.304500 0.713250 -1.313100 
-0.585060 0.804680 -1.129800 
-0.877180 0.843760 -0.025589 
0.777060 -1.052000 0.118280 
0.366560 0.347240 -1.299100 
0.878870 -0.965410 0.108000 
0.741020 0.003318 -0.983860 
-0.418730 1.320500 -0.767110 
0.511010 0.287640 -0.551210 
-0.365730 1.239800 -0.127470 
0.294240 1.290700 -1.517100 
0.386730 -1.549700 0.161130 
-0.491070 -1.104300 -0.321910 
0.441480 1.183300 -1.405700 
-0.674590 -0.139190 -1.135800 
0.650060 -0.798260 -0.741660 
0.338310 0.426160 -1.009500 
-0.707070 -0.756840 -0.290130 
0.610080 1.538800 -0.164120 
-0.597010 1.280100 -0.852240 
-0.891230 -0.492220 -0.205370 
0.622650 -0.256520 -0.364470 
-0.080467 1.260100 -0.267160 
0.259300 1.319700 -0.226210 
-0.638120 1.015300 -1.179300 
0.725820 0.022533 -1.407500 
-0.561950 1.576100 0.081928 
0.469370 -1.431400 0.183290 
-0.628400 1.015600 -0.267490 
-0.846640 0.515460 -0.463060 
-0.000647 1.410900 -0.715620 
-0.605970 1.158300 -0.735080 
0.358280 0.726100 -0.624580 
0.106250 -1.416900 -0.461750 
0.233820 1.121700 -0.656830 
-0.617990 1.262600 -0.337460 
-0.195840 -1.134600 -1.102500 
-0.039259 -0.843550 -1.222000 
-0.259570 1.215200 -0.666950 
0.413600 0.215700 -0.999220 
-1.103100 -0.200970 -0.056392 
0.353360 1.412500 -0.160270 
0.628390 0.069446 -0.785420 
-0.271450 -0.948360 -0.430280 
0.139440 1.416500 -0.243800 
-0.651900 0.771180 -0.286340 
-0.707440 1.209600 -0.342740 
-0.581730 -0.478910 -0.353400 
0.327260 0.860860 -0.664410 
-0.584130 -0.638810 -0.327510 
-0.023894 -1.651700 -0.100450 
0.436860 -0.855760 -0.216540 
0.228930 1.710800 -0.066750 
0.447000 1.070700 -0.803940 
0.577050 -0.774750 -0.227680 
-0.374970 1.305400 -0.808160 
-0.747220 1.268900 -0.078357 
0.381330 0.279150 -1.097400 
0.308530 0.647600 -0.878030 
0.139790 -1.047100 -0.362660 
-0.071136 -1.471400 -0.145920 
0.521230 1.240400 -0.583950 
0.118300 -1.406700 -0.597510 
-0.051053 -1.412000 -0.184590 
0.447200 1.072300 -1.347000 
0.283790 0.792260 -0.971010 
-0.948330 0.416090 -0.118070 
-0.241660 -1.135800 -0.495680 
-0.580670 1.105600 -0.701810 
-0.307280 1.169100 -0.481690 
-0.164830 -0.645350 -1.292200 
0.300670 -1.292000 -1.208800 
-0.661450 0.901810 -0.198370 
0.898830 0.065209 -0.196160 
-0.759930 0.992990 -0.067874 
0.012353 1.340600 -0.954250 
-1.014600 0.957320 0.027997 
-0.925450 0.314900 -1.118000 
0.547120 -0.562390 -0.821460 
0.282940 0.867100 -1.015900 
0.192770 1.214700 -0.416500 
0.437470 -0.904190 -0.619560 
-0.139280 -1.551200 -0.123990 
-0.024445 -0.973320 -1.589600 
0.513330 0.747020 -0.394410 
-0.659720 -0.398200 -0.302450 
-0.762100 0.043433 -0.749700 
-0.730540 0.622070 -0.390280 
-0.834660 0.404580 -0.796000 
0.180920 1.130800 -0.998750 
-0.541770 -1.005300 -0.331030 
-0.916340 0.985710 0.010092 
0.315520 0.861670 -0.705680 
-1.088900 0.414030 -0.013929 
1.077300 0.282850 -0.229810 
0.139700 1.135700 -0.871730 
1.040300 0.236040 -0.200860 
-0.567750 1.181800 -0.923270 
0.617190 -0.169510 -0.540570 
0.139920 -1.289700 -1.139900 
-0.484980 -0.457120 -0.457090 
-0.810510 -0.099058 -0.124830 
0.144750 1.306400 -0.484020 
-0.144260 -1.237900 -0.537390 
0.252040 -1.019700 -0.660450 
1.084200 0.140570 -0.147390 
-0.160980 1.468000 0.018886 
-0.374900 1.283100 -0.766130 
0.044399 1.271900 -1.085000 
0.814570 1.071500 -0.217000 
0.453880 0.155430 -0.950840 
0.536490 0.995910 -0.319870 
0.000072 -1.274200 -1.548400 
0.326550 1.001700 -0.923480 
-0.173870 -1.328500 -0.224140 
0.246380 1.212200 -1.321100 
0.984650 -0.135800 -0.053691 
-0.046236 -0.855950 -1.005900 
0.740950 -1.190700 0.133320 
-0.482880 -0.227430 -0.763570 
0.321820 -1.061000 -0.790450 
0.088602 1.333200 -0.640040 
0.601220 1.275600 -0.310430 
-0.318410 -1.237000 -0.309700 
-0.154610 -1.203300 -0.826270 
0.506500 0.113100 -0.819890 
0.242130 -0.961380 -0.482680 
0.875740 0.638620 -0.290040 
0.358100 0.492610 -1.462600 
0.295020 0.942920 -1.059900 
-0.706760 1.575800 0.059806 
0.312940 0.572240 -0.968250 
-0.675250 0.841990 -0.203500 
-0.684700 0.603370 -0.755670 
-0.200920 -0.597330 -1.079800 
0.285440 0.792340 -0.924690 
-0.023556 -0.986700 -1.458100 
0.594100 -0.680260 -0.357180 
-0.205120 -0.651270 -0.744010 
0.662200 0.035787 -1.422000 
0.514950 0.153120 -1.556700 
0.581050 -0.630300 -0.349900 
0.363270 0.359030 -0.914000 
-0.593930 0.696610 -0.798360 
0.287340 -1.169400 -1.069300 
0.098391 1.217900 -0.722120 
-0.154990 1.390200 -0.782800 
0.339880 0.994360 -0.752360 
0.639610 0.050808 -1.118000 
-0.510320 -0.216720 -0.624960 
-0.678290 0.518880 -1.157600 
-0.570300 1.193200 -0.984300 
-0.129010 -1.256300 -0.344020 
-0.670190 1.142500 -0.518400 
0.991950 0.377400 -0.270110 
-0.160790 -1.223300 -1.404300 
0.972950 0.480720 -0.295130 
0.744680 0.039035 -0.553790 
-0.546060 -0.442910 -0.396150 
-0.716580 1.431200 0.054162 
0.953780 -0.394620 0.011858 
0.206770 -1.387000 -0.883860 
-0.627440 1.053800 -1.083800 
0.196590 -0.998030 -0.491050 
0.349880 0.432710 -0.871550 
-0.148110 -1.225100 -1.492800 
-0.801700 0.085969 -0.770640 
0.392050 0.293600 -0.867010 
0.767450 0.736440 -0.278450 
0.211400 1.334200 -0.267500 
-1.119600 0.793880 0.025482 
-0.788420 0.426560 -1.210600 
-0.284530 -1.487200 -0.164920 
-0.079373 -0.764970 -1.474100 
-0.546500 0.939680 -0.545850 
0.408150 0.951320 -1.701700 
0.111770 -1.410000 -0.529080 
0.173770 -1.107400 -0.110510 
0.909930 0.419100 -0.285930 
-0.150150 -1.160100 -1.403000 
0.638510 -1.019600 0.097464 
-0.174000 -0.875370 -0.565120 
0.432840 -1.180200 0.123450 
0.722370 0.090466 -0.480230 
-0.690170 -0.153160 -0.268780 
-0.306490 -0.437510 -0.944930 
-0.188230 1.201700 -0.324620 
0.313340 0.934450 -0.749180 
-0.437590 -0.284700 -0.962890 
-0.880030 0.415700 -0.243180 
0.210950 -1.174500 -0.934110 
0.462010 1.329300 -0.282370 
-0.796230 0.755560 -0.108450 
-0.648740 1.249600 -0.630670 
0.375690 0.443430 -0.743010 
0.517010 1.402600 -0.196690 
0.539060 1.244500 -0.520370 
0.210950 -1.353000 -0.601680 
0.319140 0.781390 -1.408800 
-0.110290 -1.205200 -0.980980 
-0.583560 1.267000 -0.129540 
-0.054423 1.439400 -0.964500 
0.204230 -1.046400 -0.155030 
0.516290 0.722960 -1.711300 
0.134820 -1.312800 -1.104300 
-0.564640 -0.228490 -0.463580 
0.690150 0.059232 -0.749210 
-0.154810 -1.224700 -1.448400 
-0.150970 -1.395400 -0.169770 
-0.788470 0.537590 -0.847610 
-0.425340 -1.241200 -0.278770 
-0.740690 0.110430 -0.616060 
0.233120 -1.345400 -0.841770 
0.413610 0.210680 -1.092700 
-0.035627 1.350800 -0.514880 
-0.176480 -1.077600 -1.095600 
-0.422390 1.259100 -0.665990 
0.630350 -0.820960 -0.618150 
0.296850 0.720070 -0.878970 
-0.247800 -1.210400 -0.443490 
-0.812470 0.361120 -0.855430 
0.306330 0.935590 -1.248300 
-0.844710 0.457090 -0.728050 
0.034942 -1.660700 -0.082431 
-0.843110 0.122720 -0.834880 
1.064200 0.189230 -0.173900 
-0.758810 -0.555510 -0.253380 
-0.569440 1.048800 -0.625850 
-0.158580 -0.657760 -1.081200 
0.667020 -0.580890 -0.121180 
0.167540 1.724300 -0.044996 
-0.702890 0.113000 -0.449510 
0.684020 -0.642130 -0.075394 
0.598010 -0.522730 -0.270570 
0.638010 0.052904 -1.075800 
-0.639820 0.896100 -0.235340 
0.002714 1.345100 -0.227800 
0.650870 -0.809240 -0.008919 
0.037444 1.278200 -0.905930 
-0.592630 1.337000 -0.851620 
-1.025500 0.415120 -0.045002 
-0.369050 1.173000 -0.513970 
-0.326980 -0.402870 -1.485900 
