-0.138180 -1.532100 -1.570900 
-1.100100 0.881280 -1.376900 
-1.247800 0.578090 -0.728060 
0.807470 -1.160500 0.074861 
1.154100 -0.236760 -1.020700 
-0.039050 1.738900 -0.311510 
-0.912430 -0.607860 -0.516300 
-1.217400 0.189440 -0.037195 
-0.524230 -1.248500 -0.825050 
0.326230 -1.553500 -0.923340 
0.406490 -1.530400 -0.130450 
-0.527120 -1.236600 -0.917800 
1.077300 0.282850 -0.229810 
0.316190 1.618300 -1.179400 
-1.199900 0.149430 -0.528030 
-1.045300 1.202000 -0.125740 
-1.012800 1.263800 -0.066701 
-0.780600 1.523800 -0.121920 
-1.260700 0.432120 -0.242180 
-0.803770 -0.778330 -0.808240 
-0.797830 1.509500 -0.430500 
-0.693090 -0.969210 -0.526330 
-0.851450 -0.617750 -1.489500 
-1.266000 0.489580 -0.003238 
0.142810 1.702400 -0.774360 
-0.632910 1.597800 -0.523280 
0.898790 0.579840 -1.512000 
-0.289670 1.661200 -0.828390 
-0.647500 -0.957050 -1.515600 
-1.050300 -0.309260 -0.763520 
0.907010 0.804350 -0.661810 
0.543140 -1.355400 -0.870040 
-1.059900 -0.203060 -1.056700 
-1.256900 0.567770 -0.202380 
-0.712540 1.500100 -0.922410 
-1.163200 0.097059 -0.825390 
-1.165500 0.764230 -1.212700 
1.120700 0.158740 -1.110000 
0.864300 1.079200 -0.924680 
0.707050 1.332900 -1.600500 
0.928510 -0.997530 -0.225960 
-1.160800 0.010037 -0.421130 
-1.183100 0.837790 -0.741170 
-1.178000 0.097697 -0.634020 
-0.716960 -0.842610 -1.504700 
1.157000 -0.173970 -1.112900 
-0.340270 -1.518000 -0.184130 
0.901110 0.869130 -0.602260 
-0.363860 1.700600 -0.230240 
0.084619 1.677600 -0.987850 
-1.224500 0.707820 -0.698100 
-0.207650 -1.591400 -0.682310 
0.792130 -1.144800 -0.620750 
-0.872850 -0.617940 -1.244400 
-0.208380 -1.563200 -1.117900 
-0.494760 -1.286400 -1.018400 
-0.874770 -0.662490 -0.789190 
1.028200 0.352280 -0.765510 
1.089000 0.149450 -1.548900 
1.174200 -0.221840 -0.341290 
-1.048300 -0.334140 -0.331020 
-1.156800 -0.010888 -0.302820 
0.479460 1.556200 -1.219400 
0.890980 0.942410 -0.742070 
1.187900 -0.026578 -0.086879 
-0.897310 -0.560170 -1.338000 
-0.938900 -0.506060 -1.195000 
0.173790 -1.645400 -0.807640 
-0.884830 1.443700 0.025875 
-1.199100 0.133380 -0.101830 
0.985440 -0.811050 -0.901470 
-0.992660 -0.352620 -1.308200 
-0.322550 -1.476300 -1.315400 
-0.846580 1.473900 -0.356200 
-0.368230 -1.418300 -1.438200 
0.321890 -1.593300 -0.344030 
-0.815580 -0.777170 -0.283980 
-0.829610 -0.742390 -0.694210 
1.168100 -0.293860 -0.011889 
0.092106 -1.664900 -0.058512 
0.616270 -1.347700 -0.436770 
-0.778680 1.476600 -0.860210 
-0.080991 -1.607200 -1.097100 
0.884980 1.003300 -0.591480 
0.425100 1.566600 -1.315300 
0.708660 1.442100 -0.738620 
-0.555810 1.642200 -0.233820 
1.050300 -0.758050 -0.239130 
1.124900 -0.521130 0.034782 
-0.020144 -1.651300 -0.353310 
-0.268400 -1.525700 -1.197100 
0.047965 -1.649300 -0.827100 
1.160500 0.028773 -1.092000 
0.146140 1.719700 -0.532780 
-1.120900 0.891290 -1.218300 
-1.040200 1.212300 -0.532080 
-1.218100 0.707810 -0.822510 
1.128300 -0.466030 -0.630220 
-0.578480 -1.171100 -0.324170 
-1.040300 -0.296270 -0.983670 
1.107700 -0.420350 -1.112500 
-1.192800 0.772010 -0.926900 
-0.775190 -0.806310 -1.028500 
1.138900 0.091648 -1.212500 
1.124900 0.163080 -1.003500 
-0.632300 -1.041300 -1.043800 
1.028200 0.355850 -0.679100 
-0.206330 -1.594400 -0.590000 
0.374320 -1.552800 -0.433450 
0.719470 1.362500 -1.347100 
-1.010800 1.270300 -0.458060 
0.592140 1.545600 -0.275910 
0.319560 1.648700 -0.935060 
-0.204700 -1.596300 -0.500300 
-1.195100 0.829880 -0.329120 
-0.673230 1.542400 -0.807210 
0.172550 -1.652400 -0.683880 
-0.082499 -1.636500 -0.141560 
-1.160800 0.025375 -0.541550 
1.134100 -0.301320 -1.124500 
-1.100900 1.028200 -0.915380 
1.171000 -0.102860 -0.994920 
1.171200 -0.235940 -0.087072 
0.112520 -1.646200 -0.900350 
0.788240 1.341400 -0.195610 
-0.869510 -0.680070 -0.488080 
-0.208950 -1.583700 -0.842470 
1.085100 -0.595390 -0.816310 
0.534760 1.538300 -1.153700 
0.364960 -1.562500 -0.250890 
1.022700 0.366130 -0.446680 
1.024400 -0.815140 -0.022247 
-1.133400 0.028033 -0.898140 
0.508860 -1.406500 -0.808640 
0.771550 1.224500 -1.599800 
-0.879900 -0.624830 -1.098600 
0.923490 0.600510 -1.034800 
-1.134600 1.003400 0.025318 
-0.141390 1.738400 0.049984 
-1.060900 -0.300690 -0.205760 
0.894190 0.966810 -0.239290 
1.176200 -0.096325 -0.893870 
0.777110 -1.132100 -0.762970 
-0.942110 -0.547450 -0.757690 
-1.063900 -0.249520 -0.845060 
0.106200 -1.582500 -1.444600 
0.966250 -0.870780 -0.799670 
0.892700 -0.975070 -0.818350 
-0.886890 -0.660630 -0.251990 
-0.755100 -0.864660 -0.682480 
-1.210800 0.447720 -1.208200 
-0.390680 -1.462200 -0.371810 
0.089093 1.732900 -0.328170 
0.614170 -1.343200 -0.527330 
-0.892860 1.342200 -1.093700 
0.557930 1.565600 -0.683880 
1.058700 0.306800 -0.535030 
0.203530 1.648300 -1.138300 
-0.176620 1.725800 -0.451160 
0.619510 1.527500 -0.592340 
-0.249970 -1.576300 -0.151950 
0.878770 0.790640 -1.387000 
0.344330 1.670400 -0.234680 
-0.689270 1.560600 -0.626840 
1.095100 -0.619150 -0.169690 
-1.156800 0.902290 -0.804450 
-0.518130 -1.265400 -0.709610 
-1.233600 0.396480 -0.911530 
1.060600 -0.650330 -0.879490 
0.962350 -0.939440 -0.329790 
0.717750 1.437200 -0.593330 
1.101600 0.088348 -1.620400 
-0.451730 -1.379200 -0.703920 
0.992630 -0.881330 -0.393640 
-0.706760 1.575800 0.059806 
0.321300 1.657100 -0.849630 
0.785780 1.251500 -1.342300 
-0.664170 -1.002600 -0.881850 
-0.391770 1.697900 0.084826 
1.120800 -0.099859 -1.545700 
-1.069100 1.087500 -0.991520 
0.876480 1.044500 -0.323470 
0.839110 1.223200 -0.207930 
-0.977990 -0.463310 -0.932500 
0.928090 0.441390 -1.690900 
0.574150 1.561100 -0.469980 
0.867390 0.700120 -1.704900 
-1.060100 1.008700 -1.321100 
0.170140 -1.615300 -1.124800 
-1.232800 0.698800 -0.205680 
0.851980 1.145500 -0.852300 
-0.145860 -1.596800 -1.003700 
0.959110 0.383630 -1.589400 
1.083500 -0.646570 -0.543600 
0.742700 1.403800 -0.258180 
-0.788460 1.484600 -0.772600 
-0.676280 1.588400 -0.233400 
0.471110 -1.457000 -0.695110 
-1.055600 -0.333450 -0.118190 
0.145230 1.664800 -1.060100 
-1.029300 -0.386350 -0.185500 
-0.508410 1.648500 -0.499870 
1.126900 0.088860 -1.368300 
0.966660 -0.944110 0.094246 
0.913110 0.738500 -0.720950 
0.048554 -1.628000 -1.093300 
-1.006200 -0.428350 -0.268710 
1.184100 -0.093734 -0.376910 
1.109300 0.153260 -1.299500 
-1.156800 -0.029907 -0.002433 
0.892940 0.876210 -0.935320 
-0.788250 1.520500 -0.217860 
0.329580 -1.584100 -0.525360 
-1.131600 0.822800 -1.314600 
-1.059200 -0.307730 -0.429710 
0.715200 -1.259600 -0.225620 
-0.411500 -1.438200 -0.641860 
-0.878690 -0.661470 -0.374430 
0.665310 -1.304500 -0.372810 
0.283230 -1.599800 -0.796550 
-0.912400 -0.595340 -0.830760 
0.460710 -1.440600 -0.875070 
1.163500 -0.298640 -0.381800 
-0.979460 1.328600 0.016479 
0.302700 -1.524000 -1.179500 
0.963360 -0.940680 -0.169420 
-1.212600 0.390180 -1.127000 
-0.922930 1.291300 -1.169900 
0.876340 0.863580 -1.303800 
0.870750 0.781580 -1.518000 
0.263740 1.678500 -0.788540 
1.076500 -0.531390 -1.106900 
-1.209900 0.333600 -1.046700 
1.029000 0.267830 -1.527900 
-1.163300 0.901760 -0.677070 
0.857890 1.140700 -0.666170 
-1.259800 0.495230 -0.113550 
0.979970 0.396010 -1.246900 
0.527020 1.588200 -0.331850 
0.877100 -1.040300 -0.622290 
-1.175700 0.837490 -0.868380 
1.023300 -0.821790 -0.295260 
1.175000 -0.156800 -0.811590 
0.270650 1.693900 -0.511030 
0.939380 0.592790 -0.317220 
0.554480 -1.414500 0.176200 
0.471900 -1.473300 -0.461230 
0.813630 1.195500 -1.274700 
-0.940450 1.301100 -1.035300 
0.204890 1.698600 -0.705320 
-0.269860 -1.538800 -1.051900 
0.567290 -1.396800 -0.307390 
0.656290 1.498000 -0.218180 
0.907530 -0.982080 -0.716260 
-0.206570 -1.548400 -1.266000 
-1.238900 0.334720 -0.690510 
-0.709550 -0.941870 -0.614310 
1.097300 -0.589960 -0.627040 
-0.708350 -0.941860 -0.443590 
0.152420 -1.658500 -0.143770 
-0.666780 1.592500 -0.141360 
0.452040 -1.493100 -0.048316 
0.794050 1.263500 -1.185100 
0.918830 0.597180 -1.142600 
0.391310 1.652400 -0.534890 
1.096400 0.238640 -0.721150 
0.099028 -1.662100 -0.229980 
1.153900 0.117050 -0.733690 
-0.950980 -0.452800 -1.345700 
1.123100 0.194510 -0.537940 
0.859160 0.998570 -1.298200 
-1.254000 0.335860 0.001576 
-0.993890 -0.470280 -0.182210 
0.215060 1.711600 -0.326100 
1.183000 -0.120540 -0.528070 
0.018596 1.730600 -0.531080 
-0.932800 1.384900 -0.032280 
1.113700 -0.542980 -0.132100 
-1.251700 0.453300 -0.731610 
0.752310 1.303000 -1.408200 
-0.572080 -1.070400 -1.612900 
-0.639570 -0.956600 -1.608700 
-0.814060 -0.768740 -0.419850 
-1.201100 0.636600 -1.177900 
-0.630960 -1.052900 -0.945200 
0.228410 -1.639500 -0.592210 
-0.640160 -1.057300 -0.616280 
-1.228900 0.453430 -1.038200 
-0.501650 1.659500 -0.335630 
-1.122400 -0.140900 -0.032805 
0.396390 1.652600 -0.437160 
0.021271 1.692200 -0.898620 
-1.209100 0.162420 -0.237020 
-1.197700 0.103060 0.010182 
-0.573480 -1.171300 -0.611790 
0.161590 -1.660900 -0.321040 
0.821410 1.204700 -1.121500 
-1.251900 0.388470 -0.593720 
-1.249800 0.351510 -0.126390 
-0.985870 -0.472360 -0.542220 
0.666280 -1.306700 -0.279770 
-0.080385 -1.596300 -1.205000 
0.283450 -1.606200 -0.708190 
1.146500 0.143510 -0.468570 
-1.002700 -0.429840 -0.734620 
0.564400 -1.380200 -0.622770 
-0.732050 -0.894930 -0.818640 
1.157200 -0.319090 -0.127590 
1.004200 -0.819560 -0.712490 
-0.950780 1.308400 -0.926440 
0.948490 -0.931310 -0.648800 
0.447400 -1.429100 -0.972450 
-1.134100 -0.084023 -0.255080 
-1.122200 -0.104920 -0.531500 
0.590410 1.513900 -1.082600 
0.360160 -1.504200 -1.022500 
-1.101500 1.073900 -0.129630 
1.155100 -0.291160 -0.833190 
0.895670 0.910610 -0.317550 
1.170800 -0.215150 -0.728640 
-1.233400 0.701520 -0.297410 
-1.209600 0.772110 -0.611470 
-0.727170 -0.844110 -1.373700 
1.181900 -0.048790 -0.171960 
-0.941980 -0.552040 -0.319180 
-1.013500 1.268000 -0.234290 
0.257550 -1.549900 -1.250300 
1.137200 -0.410140 -0.717620 
-0.886790 1.435000 -0.125190 
1.088500 0.256390 -0.470420 
-1.256800 0.574060 -0.434250 
-0.421480 -1.404100 -1.021000 
1.177600 -0.024231 -0.841420 
0.969020 0.477830 -0.463330 
0.112370 -1.638000 -0.998010 
-0.111710 1.728400 -0.511060 
-1.052400 1.199500 0.018949 
0.924170 0.656720 -0.374480 
-1.232900 0.338000 -0.791590 
0.847270 1.176700 -0.333780 
-0.684240 -0.981080 -0.688500 
-1.239400 0.287960 -0.191030 
0.428020 1.592000 -1.108500 
1.096700 0.233340 -0.812820 
-0.809610 1.427700 -1.016900 
-1.149700 0.956340 -0.323900 
1.137800 -0.172180 -1.325900 
-0.013870 -1.567100 -1.525000 
-1.078400 -0.150550 -0.987120 
0.992040 0.422830 -0.389040 
-0.229930 1.725400 -0.202710 
-0.467980 -1.365300 -0.267640 
-1.115700 1.029200 -0.664640 
0.292310 -1.612000 0.065860 
-0.831710 1.484200 -0.062750 
0.889200 0.568010 -1.700000 
-0.047163 1.723800 -0.619330 
-1.020300 -0.398600 -0.582290 
0.915010 0.735240 -0.610250 
0.666700 -1.313800 0.155850 
1.140100 -0.430670 -0.340480 
1.084300 -0.672680 0.060106 
-1.126800 1.013700 -0.194170 
0.830220 1.128000 -1.325000 
0.763980 1.377200 -0.493580 
-1.045400 1.208500 -0.299720 
-0.197290 -1.595800 -0.218530 
-1.213000 0.280990 -0.872620 
-1.036800 1.212400 -0.619350 
0.984890 0.321690 -1.675600 
1.073000 -0.651790 -0.726160 
-0.578940 1.637300 0.079233 
0.109780 -1.661200 -0.617350 
1.168900 0.060843 -0.239630 
1.097600 -0.604980 -0.033734 
-1.062000 1.153000 -0.697780 
1.043900 0.273380 -1.315800 
-1.151000 0.830740 -1.155100 
-0.451630 -1.313900 -1.397100 
-0.992920 1.191300 -1.173600 
0.810320 1.273800 -0.835990 
-1.195300 0.115300 -0.312750 
-1.104600 0.957760 -1.147700 
1.155900 -0.331440 -0.592270 
-0.642130 -1.062200 -0.327810 
1.088900 -0.405170 -1.330500 
0.142470 1.691600 -0.875530 
0.894700 0.928740 -0.489460 
-0.738190 -0.855240 -1.138800 
0.985440 0.399920 -1.132700 
-1.238100 0.692880 0.007351 
-0.321500 -1.527600 -0.662050 
-1.082500 -0.201240 -0.768320 
-1.100400 1.084500 -0.345050 
0.908570 0.837460 -0.261940 
-0.596590 -1.094300 -1.116200 
-1.242900 0.578310 -0.817180 
-0.615060 -1.097100 -0.688880 
-0.361940 -1.402800 -1.608700 
0.894900 0.654700 -1.383800 
0.969060 0.474200 -0.745870 
-0.099254 1.677700 -0.911310 
1.072600 0.212220 -1.389700 
0.549880 1.578600 -0.152920 
0.703230 1.442500 -0.830830 
-0.301470 -1.540900 -0.268160 
-0.975230 1.325500 -0.117610 
-0.082129 -1.637100 -0.542700 
0.031604 1.736800 -0.198120 
-0.286810 1.715200 -0.105900 
-1.260400 0.510340 -0.505210 
0.210970 -1.568200 -1.321400 
-0.359730 -1.497400 -0.466160 
-1.203100 0.570880 -1.239600 
0.108750 -1.601200 -1.302900 
-1.136600 0.966230 -0.736150 
0.230140 -1.619800 -0.895490 
0.908180 0.739660 -0.903790 
-1.008100 -0.427390 -0.472340 
1.149100 -0.297300 -0.928940 
0.262670 -1.627700 -0.193260 
0.105710 -1.664600 -0.435720 
1.132000 -0.362250 -0.994270 
-0.771490 1.531200 -0.000796 
-0.571410 -1.173700 -0.421840 
-0.716880 1.563300 -0.060039 
-1.100700 -0.150610 -0.697590 
-0.755780 -0.785730 -1.451400 
-1.075100 1.141200 -0.187830 
-0.521360 -1.272900 -0.303330 
0.393160 -1.536700 0.029589 
1.152700 0.125110 -0.642130 
0.084496 1.730000 -0.463110 
-0.143140 -1.564500 -1.331900 
-0.244320 1.712200 -0.519760 
-0.986170 -0.398170 -1.223200 
-1.173600 0.890540 -0.263600 
-0.525700 -1.206100 -1.233200 
-1.195400 0.703380 -1.104500 
-0.741330 1.524100 -0.696290 
-0.489530 -1.260800 -1.314200 
1.128500 -0.485230 -0.234430 
-1.214700 0.216660 -0.622710 
0.447170 1.626300 -0.609940 
0.638690 1.471700 -1.146200 
-0.315750 -1.454700 -1.518500 
-0.081420 -1.634600 -0.251800 
-0.871990 1.398700 -0.896830 
0.352870 1.670300 -0.128050 
-0.700260 -0.908610 -1.218300 
-0.656950 -1.022500 -0.767840 
1.096300 -0.413340 -1.236400 
-1.231300 0.266600 -0.536010 
0.711260 1.343400 -1.513500 
-1.253600 0.576660 -0.580560 
-0.569790 1.630900 -0.426620 
1.039300 -0.637640 -1.103700 
-1.093600 1.091100 -0.591330 
-0.545270 -1.130300 -1.522100 
-0.986780 -0.467810 -0.351790 
-1.235300 0.269790 -0.067389 
0.994600 -0.880030 -0.085809 
-1.204400 0.705610 -1.010200 
0.878260 1.012100 -0.863440 
1.153800 0.109800 -0.828740 
1.083200 0.216270 -1.229700 
0.645400 1.481600 -1.006800 
-0.587830 -1.139500 -0.768060 
-0.627010 1.582400 -0.683290 
0.228040 -1.611100 -0.986580 
-0.744920 -0.892050 -0.308490 
-1.143000 -0.050862 -0.128770 
-0.440500 -1.298000 -1.612800 
0.144290 1.714400 -0.627570 
0.317200 1.630500 -1.084800 
-1.167000 0.900380 -0.581570 
0.776950 1.333900 -0.923570 
0.802880 1.271900 -1.003300 
-1.262500 0.503840 -0.308410 
-1.019100 1.206100 -0.910790 
-0.769760 -0.790600 -1.244900 
0.403030 1.649200 -0.320470 
0.508440 -1.448300 -0.096883 
0.528030 1.501400 -1.452300 
0.655290 -1.291500 -0.623770 
-0.630490 -1.028800 -1.187100 
-0.974500 1.325000 -0.521180 
0.758840 1.314800 -1.286600 
-0.258290 -1.482100 -1.596700 
0.219420 1.708700 -0.215660 
0.511390 1.597200 -0.528320 
0.872440 0.707590 -1.609300 
0.908460 0.795930 -0.502420 
0.790360 1.157300 -1.661500 
0.909270 0.781120 -0.337520 
0.882410 0.869630 -1.185500 
1.137100 -0.443110 -0.427190 
-0.917370 -0.508390 -1.427400 
-0.542800 1.589500 -0.823690 
0.412940 1.643800 -0.187870 
-0.376740 -1.465700 -0.918960 
0.276670 -1.620500 -0.438270 
-0.018155 -1.649400 -0.622480 
0.584650 1.499900 -1.224900 
1.125700 -0.420870 -0.898580 
-0.168860 1.689500 -0.799840 
0.926200 -0.994420 -0.400970 
0.529460 1.516100 -1.335800 
0.840490 1.055900 -1.416500 
-1.120600 1.027100 -0.539180 
-0.932920 1.372100 -0.628470 
-0.359770 1.653000 -0.779230 
-1.261300 0.439980 -0.376810 
0.520280 -1.427900 -0.537300 
0.883320 1.007700 -0.677790 
1.169400 0.069907 -0.570820 
0.650730 1.486100 -0.907950 
-0.015412 -1.583600 -1.409100 
0.470040 1.617100 -0.270130 
-0.107920 1.734700 -0.381530 
0.690700 1.434600 -1.063100 
0.685010 -1.228100 -0.780360 
-0.462180 1.673000 0.017358 
0.881290 0.942740 -1.036500 
0.022308 1.736200 -0.396810 
-0.773710 -0.817820 -0.932090 
-1.203500 0.277710 -0.969600 
0.435620 1.615700 -0.859560 
0.613950 -1.356600 -0.084007 
-1.247600 0.638020 -0.354300 
1.134800 -0.105150 -1.429100 
-1.139700 -0.062858 -0.370170 
-0.592060 -1.139400 -0.523800 
1.148500 -0.379230 -0.052519 
0.544260 1.557800 -0.921540 
-1.040700 -0.252640 -1.130300 
1.180500 -0.138700 -0.652150 
0.829450 1.210200 -0.944280 
0.563340 -1.402000 -0.144800 
0.914860 0.725130 -0.435780 
0.853750 0.833270 -1.703200 
-0.881400 1.406600 -0.798580 
0.267810 1.690400 -0.608670 
-1.168600 0.694810 -1.326000 
-1.009100 1.126900 -1.298300 
-0.515610 -1.271800 -0.423410 
0.868780 1.008300 -1.105500 
-0.847700 -0.716580 -0.565270 
-1.174700 0.879770 -0.041232 
-0.661430 -0.962970 -1.301000 
-0.835660 -0.673610 -1.300700 
-0.082079 -1.631900 -0.728660 
-0.213660 1.725400 -0.026623 
-1.085700 -0.227790 -0.518720 
1.023100 -0.762140 -0.794870 
-0.169020 1.732100 -0.279850 
0.806090 -1.159000 -0.020127 
-0.842930 -0.710600 -0.856760 
-0.969240 -0.500620 -0.684580 
0.110420 -1.615400 -1.199200 
0.784540 1.333600 -0.763000 
1.143800 -0.401310 -0.167540 
-1.101400 -0.185950 -0.401620 
1.176000 0.034508 -0.380790 
0.043820 1.738100 -0.023926 
-0.894740 1.427100 -0.426050 
-0.458340 -1.359500 -0.887190 
-0.372540 -1.480300 -0.727230 
0.995870 0.419060 -0.528400 
-0.811850 -0.674460 -1.556500 
0.849700 0.986250 -1.466100 
1.093100 -0.629060 -0.277530 
-0.416680 -1.377600 -1.317300 
1.094900 0.244260 -0.633690 
0.835890 1.209700 -0.781070 
-1.070700 1.015100 -1.227600 
-1.170700 0.033928 -0.222630 
0.627650 1.442300 -1.413100 
-0.977010 1.326800 -0.386490 
0.933650 0.604260 -0.693830 
0.844420 0.978840 -1.554800 
-0.441360 1.674900 -0.416530 
0.799500 1.312200 -0.422080 
0.860150 1.077500 -1.028300 
-1.077000 1.134400 -0.037964 
1.116200 0.088241 -1.491500 
0.890730 -1.053700 -0.170850 
1.182500 -0.069178 -0.258890 
-0.451290 -1.380400 -0.353210 
0.949230 0.536120 -0.400120 
0.274740 1.695500 -0.393490 
-0.528010 -1.215300 -1.121400 
-0.915210 -0.582990 -0.918840 
1.005500 -0.753680 -0.970860 
-0.619260 -1.016700 -1.429800 
-0.561880 -1.168500 -0.980980 
0.807020 1.185500 -1.396900 
0.902950 0.808020 -0.839680 
0.875020 1.066100 -0.529900 
-1.082000 -0.247790 -0.138020 
-0.178100 1.716800 -0.576980 
0.807590 -1.159300 -0.224400 
-1.215700 0.756450 -0.049140 
-0.506820 1.639100 -0.597140 
1.114900 -0.293330 -1.326000 
0.017360 1.718400 -0.689960 
0.616330 -1.354500 -0.215710 
0.931300 0.526650 -1.215300 
0.607510 1.529200 -0.763230 
-0.081673 -1.621100 -0.924670 
0.990910 0.404650 -0.991440 
0.793860 1.324400 -0.557170 
-1.069000 -0.261330 -0.694520 
-0.509870 -1.283500 -0.602660 
0.168310 -1.658900 -0.500980 
-0.635370 -1.063700 -0.429150 
-1.094100 -0.209190 -0.285190 
0.595210 -1.320600 -0.796090 
-0.371530 1.696600 -0.336370 
0.919090 -0.989100 -0.565250 
-0.859840 -0.616370 -1.404100 
0.730980 1.381900 -1.117800 
1.021700 0.341330 -1.056400 
0.463370 -1.485400 -0.231650 
0.965090 0.387050 -1.498400 
0.815420 1.271300 -0.711200 
-0.961880 1.316200 -0.791120 
-0.375560 -1.441200 -1.201800 
-0.410380 -1.447300 -0.225140 
-0.530630 1.649300 -0.031344 
-0.992060 1.262400 -0.851190 
-0.529420 -1.249000 -0.511650 
-1.160600 0.834000 -1.059500 
0.800370 1.173000 -1.525900 
1.130900 0.187180 -0.180500 
-0.684610 -0.986220 -0.355810 
-0.702020 -0.934850 -0.940610 
0.255370 -1.629100 -0.100250 
1.099400 -0.479680 -1.039300 
-1.259300 0.418810 -0.055049 
-0.430810 -1.411600 -0.434350 
0.754680 1.387800 -0.662090 
0.934820 0.599180 -0.466520 
-0.377330 1.685000 -0.519730 
-0.084370 1.736800 -0.031407 
0.384540 1.648200 -0.689570 
1.146700 -0.042784 -1.337100 
0.806840 1.292700 -0.271840 
-1.029300 -0.358010 -0.832620 
0.350620 -1.570300 -0.061189 
1.061400 0.288660 -0.882940 
-0.479360 -1.246800 -1.523900 
-1.256900 0.562840 -0.058603 
-0.309930 -1.537900 -0.401950 
0.890640 0.727310 -1.302900 
1.104400 -0.285230 -1.428800 
-0.268320 -1.559000 -0.750750 
-0.625200 1.611400 -0.331650 
1.175400 -0.196370 -0.222500 
1.097000 -0.538560 -0.883000 
-1.019800 -0.301240 -1.203500 
0.766250 -1.213500 0.132600 
0.959880 0.465740 -1.064000 
1.109000 -0.569010 -0.353280 
-0.417810 -1.424700 -0.791640 
-0.768370 -0.843480 -0.392830 
-0.556710 -1.140300 -1.309300 
0.853430 1.072000 -1.175200 
0.985270 -0.878600 -0.572360 
0.692730 1.462200 -0.321580 
0.847260 -1.102800 -0.418530 
-0.308810 1.689400 -0.625940 
1.179700 -0.015183 -0.744330 
-1.171400 0.896400 -0.422510 
0.519020 -1.436600 -0.380950 
-0.326720 -1.506400 -0.985130 
-1.214900 0.186780 -0.372640 
-0.970930 -0.452070 -1.126100 
1.137200 -0.237720 -1.224500 
-0.946830 -0.513850 -1.023100 
1.018800 -0.823100 -0.462540 
0.914560 0.670380 -0.968640 
-0.404630 -1.448400 -0.529380 
1.031500 -0.815200 0.079585 
0.911130 0.590910 -1.297800 
1.183900 -0.041891 -0.453030 
1.180500 -0.000881 -0.618960 
0.419050 -1.519600 -0.344830 
0.665950 1.487400 -0.664830 
-0.689310 1.576100 -0.434810 
0.425930 -1.501800 -0.628930 
-0.846030 -0.697860 -0.947130 
0.885230 -1.046500 -0.488880 
0.374410 -1.522200 -0.851770 
1.059300 0.284540 -0.982050 
-1.048600 -0.326100 -0.640620 
-0.746420 1.538300 -0.521890 
0.375030 1.623700 -1.003900 
0.228930 1.710800 -0.066750 
0.705340 -1.248700 -0.565050 
1.058100 -0.708320 -0.640920 
0.273210 -1.574300 -1.055500 
0.947050 0.456190 -1.331500 
-1.254200 0.382460 -0.489000 
1.108700 -0.533940 -0.714330 
-1.172100 0.154910 -0.922350 
0.637030 1.514900 -0.384090 
0.500820 -1.451300 0.024004 
0.807700 -1.159800 -0.135280 
-0.937740 1.381200 -0.317540 
-0.894040 1.422900 -0.525850 
1.165600 0.033666 -0.986730 
-0.976850 -0.477210 -0.816600 
-0.968410 1.248100 -1.105400 
-1.097600 1.088600 -0.468180 
0.995120 0.409860 -0.830690 
-1.146500 0.961920 -0.482440 
-1.229900 0.706440 -0.543350 
0.714100 -1.259200 0.066739 
-1.173300 0.885920 -0.168310 
0.909490 0.508730 -1.600100 
0.897350 0.806900 -1.004100 
1.120200 -0.516760 -0.488760 
0.965660 0.470650 -0.896600 
-0.545880 1.645800 -0.144960 
-1.114200 0.961740 -1.052900 
0.961240 -0.940210 -0.027176 
0.935340 0.602310 -0.562410 
0.018447 1.709300 -0.782150 
0.549050 1.562400 -0.829270 
0.710300 -1.254000 -0.466440 
1.071100 -0.698470 -0.335760 
-1.171700 0.100160 -0.739700 
-0.458110 -1.330100 -1.200000 
-0.892120 1.432800 -0.250810 
-1.242900 0.300590 -0.290210 
-0.902310 -0.620880 -0.696420 
-0.797670 -0.729700 -1.355100 
1.130800 -0.462690 -0.092886 
-0.739670 1.551500 -0.318020 
-1.101700 1.080600 -0.252730 
1.024800 -0.819470 -0.172640 
-1.112100 -0.090036 -0.766340 
-0.753690 -0.868580 -0.476630 
-0.081925 -1.627300 -0.825300 
0.461410 1.623900 -0.385570 
-0.407790 -1.359300 -1.523800 
-1.054300 1.080500 -1.145000 
1.153100 -0.109220 -1.241900 
0.845840 1.189000 -0.436070 
-1.011900 1.202200 -0.998450 
0.715410 -1.260100 -0.131330 
0.875680 1.056400 -0.423530 
-0.308470 1.707600 -0.405620 
-1.214400 0.759740 -0.142490 
0.386730 -1.549700 0.161130 
1.020800 0.379060 -0.270770 
-0.263220 -1.501300 -1.430200 
0.901720 0.736620 -1.073900 
0.892430 -1.059300 0.107600 
0.863930 0.925820 -1.384600 
-1.232300 0.704360 -0.420130 
0.958930 -0.937160 -0.461940 
0.160170 1.720600 -0.151340 
0.497700 1.595600 -0.744430 
1.055000 0.208150 -1.606500 
-1.040300 -0.353600 -0.505470 
-1.029400 1.210600 -0.764960 
-1.231500 0.256320 -0.440490 
0.202580 1.674500 -0.940760 
0.260950 1.653900 -1.010600 
0.725410 1.373700 -1.229500 
0.047246 -1.654300 -0.731410 
-0.490920 1.619100 -0.759510 
-0.098413 1.737600 -0.207280 
-0.082060 -1.638000 -0.453060 
0.714290 -1.259200 -0.033850 
0.676140 1.481500 -0.525910 
0.815650 1.104900 -1.582900 
-1.244900 0.454850 -0.842360 
0.896680 0.732800 -1.184700 
-0.422070 1.686100 -0.162230 
-1.044000 1.210500 -0.386800 
-0.201620 -1.521100 -1.502900 
1.162200 -0.041120 -1.151100 
0.805770 -1.157300 -0.352710 
-1.137700 -0.033239 -0.630190 
0.779190 1.239300 -1.467700 
1.120500 0.025280 -1.557700 
0.931100 0.604290 -0.808930 
-0.703540 -0.923170 -1.038100 
-1.129200 0.965910 -0.862950 
1.115100 0.207630 -0.403140 
-0.797870 1.498800 -0.592380 
1.170300 0.086219 -0.131100 
0.610370 -1.356900 0.025540 
-0.968530 -0.505680 -0.435340 
-0.842400 -0.677700 -1.185500 
0.926210 -0.999380 0.028976 
-1.210300 0.221620 -0.714180 
0.872690 1.096800 -0.221680 
-0.506210 -1.184700 -1.613800 
-0.438590 1.653200 -0.649760 
0.870560 1.076900 -0.732430 
-0.015529 -1.597900 -1.296200 
1.041100 -0.765230 -0.536660 
0.741790 -1.190500 -0.674450 
0.970330 0.476200 -0.635810 
1.160600 -0.313890 -0.471540 
0.197060 -1.654700 0.012307 
1.088000 -0.640850 -0.437820 
-1.002600 1.268000 -0.682460 
0.920340 0.517930 -1.419900 
1.152100 0.103450 -0.927590 
-0.592720 -1.125300 -0.854390 
-0.255530 -1.570100 -0.337520 
0.036652 -1.657400 -0.137890 
1.067000 -0.522420 -1.218500 
-1.238800 0.515370 -0.934980 
-1.109000 -0.160740 -0.201080 
-1.201800 0.816860 0.017813 
-0.550630 -1.133800 -1.434200 
-0.743080 -0.786710 -1.587300 
-1.148300 0.901140 -0.931850 
0.850620 0.908100 -1.605400 
1.176400 -0.194560 -0.572320 
-1.226500 0.576470 -1.027100 
1.133000 0.168210 -0.280900 
-1.015700 -0.346590 -1.102600 
0.539910 1.551100 -1.018000 
1.179900 -0.168840 -0.419620 
-1.000900 -0.400240 -1.021000 
1.046700 -0.762790 -0.389600 
-1.199500 0.137890 -0.441640 
1.054200 0.279350 -1.123200 
-0.238420 1.722400 -0.331750 
-0.846440 -0.687490 -1.044300 
0.378640 -1.533700 -0.719400 
-1.091700 -0.145830 -0.837500 
-0.267610 1.723300 0.072895 
0.843460 1.198700 -0.544420 
-0.325220 -1.518400 -0.818560 
-0.667480 -0.975410 -1.110900 
1.050900 -0.750860 -0.085602 
1.133900 0.023912 -1.434000 
0.101680 1.730200 -0.087399 
0.044652 -1.660400 -0.515490 
0.922050 0.711700 -0.284080 
1.078500 0.269700 -0.321520 
0.738130 1.388700 -0.977260 
-0.411570 1.687200 -0.073775 
-0.844160 1.456100 -0.668130 
0.840670 -1.097100 -0.554330 
-1.035900 1.143500 -1.058400 
0.972950 0.480720 -0.295130 
0.941970 0.534620 -0.964380 
-0.317160 -1.533200 -0.543220 
-1.127100 1.006500 -0.068629 
-0.240830 1.695300 -0.679740 
0.928350 0.603310 -0.901650 
0.995350 -0.881570 -0.230270 
1.147600 0.024115 -1.276800 
-0.780550 -0.825780 -0.605250 
0.837020 0.965310 -1.693900 
-1.084700 1.092000 -0.776080 
-1.192400 0.834370 -0.487340 
0.770220 1.329700 -1.061500 
0.625270 1.427900 -1.537500 
-0.927630 -0.579070 -0.415610 
1.185700 -0.153330 -0.047430 
1.154200 -0.354190 -0.302740 
0.771960 1.359700 -0.338300 
-1.256100 0.513540 -0.647150 
-0.202710 -1.597200 -0.413090 
0.888260 -1.053900 -0.033939 
-0.109810 1.708300 -0.724200 
1.051000 -0.646230 -0.979920 
0.647820 -1.283600 -0.713080 
0.558270 -1.371700 -0.727210 
0.558780 -1.404200 -0.031341 
0.553710 -1.406700 0.086011 
0.348350 -1.493500 -1.111900 
0.422460 -1.489300 -0.783860 
0.331600 -1.578700 -0.613880 
-0.016328 -1.628000 -1.011700 
-0.141800 -1.618400 -0.318740 
-0.326060 -1.494500 -1.126700 
-0.269920 -1.549200 -0.914020 
-0.420910 -1.394500 -1.127500 
-0.471060 -1.350700 -0.519500 
-0.809670 -0.739420 -1.124300 
-0.803750 -0.788570 -0.531020 
-0.889980 -0.645290 -0.598880 
-1.103700 -0.157560 -0.609010 
-1.203200 0.222650 -0.805850 
-1.176800 0.053554 -0.057137 
-1.222400 0.512190 -1.110200 
-1.245800 0.632270 -0.145660 
-1.225300 0.641890 -0.930340 
-1.124100 1.023500 -0.413720 
-1.053000 1.151000 -0.848000 
-0.935540 1.382600 -0.187960 
0.440900 -1.500600 0.111160 
-0.650050 1.599800 -0.000558 
-0.337710 1.705000 0.012360 
-0.157870 1.732400 -0.127180 
-0.028419 1.737600 -0.136040 
0.150020 1.723800 -0.394490 
0.632210 1.456700 -1.295000 
0.728760 1.425100 -0.431480 
0.818760 1.267300 -0.622330 
0.827150 1.035200 -1.638800 
0.900980 0.853210 -0.397320 
0.970720 0.390280 -1.411000 
1.131800 -0.416670 -0.807830 
1.166400 -0.275680 -0.263120 
1.181200 -0.144870 -0.299870 
0.890030 -1.051300 -0.323950 
0.927090 -0.998310 -0.088857 
0.831320 -1.089000 -0.677830 
0.801770 -1.153500 -0.473640 
0.761640 -1.209500 -0.289350 
