-1.068900 0.259900 -1.010900 
-0.374000 1.476600 -0.338470 
0.371470 -1.253900 -0.321900 
0.375910 -1.242000 -0.525700 
-0.264060 -1.300100 -1.541500 
0.977150 -0.107970 -1.026300 
-0.594680 -0.595990 -1.476000 
-0.306200 -1.123400 -1.232400 
0.945260 -0.245320 -0.627350 
0.258200 -1.441400 -1.306400 
-0.851120 -0.719440 -0.269050 
0.961380 0.052199 -1.583200 
0.651810 0.654960 -1.436100 
0.218440 1.444700 -0.968330 
-0.026235 -1.593600 -0.124200 
-0.558950 -0.801390 -0.478170 
-0.679820 -0.561040 -0.497510 
-1.057400 0.607310 -0.544430 
0.572910 1.377900 -0.644900 
0.180040 -1.530100 -0.840920 
-0.294980 -1.112200 -1.533000 
0.356450 -1.305600 -0.996090 
0.472190 -1.188900 -0.363260 
0.983380 -0.489940 -0.035388 
-0.023668 1.535000 -0.179030 
0.928650 -0.318040 -0.735610 
-0.543730 -0.756690 -0.883620 
0.778600 0.361600 -0.525470 
0.952770 -0.852020 0.072817 
-0.593820 1.443300 -0.802540 
-0.914980 -0.235990 -1.246100 
-0.775830 -0.400520 -1.233800 
0.878830 -0.738890 -0.027878 
0.614500 1.344300 -0.723510 
-0.409300 -0.974330 -0.926870 
0.805110 0.374060 -0.442570 
-0.049254 1.532000 -0.534020 
1.063800 -0.505420 0.018799 
0.911920 -0.295640 -1.434800 
0.893250 -0.679430 -1.060800 
-0.698740 -0.930360 -0.320700 
0.862490 -0.619120 -0.997240 
-0.583360 -0.723220 -0.522840 
-0.105510 -1.462700 -0.228260 
0.816250 1.283600 -0.201760 
0.767320 1.191100 -0.231190 
-1.176400 0.033116 0.006078 
0.680150 0.520960 -1.384400 
0.485310 1.331700 -1.308500 
0.526340 1.382800 -0.446740 
-0.953100 -0.357010 -0.176780 
0.977820 -0.065716 -1.582100 
0.314430 -1.376900 -1.190500 
-0.767940 -0.389130 -0.742860 
-1.077600 0.493830 -0.511730 
-0.436180 -0.887870 -1.339800 
0.784720 0.266660 -1.237000 
0.739140 -1.032200 -0.778390 
-0.728470 -0.456800 -0.676320 
0.854520 -0.592140 -0.726230 
0.910490 0.293760 -0.326430 
-0.362360 1.512600 -0.040542 
0.863350 -0.730750 -0.986200 
0.756210 -0.888550 -0.538520 
-1.061300 0.303150 -0.122000 
0.254540 1.482700 -0.644340 
0.023733 1.529100 -0.250490 
0.780330 0.492990 -0.425460 
-0.370150 -1.035700 -0.862310 
-0.248730 -1.411900 -0.291060 
0.222000 -1.454700 -0.104040 
-0.363550 -1.088500 -0.525310 
0.513740 -1.133600 -0.627680 
-1.071400 0.603830 -0.140280 
-0.837630 -0.215480 -0.812750 
0.355030 1.671200 -0.107380 
-0.609400 -0.604510 -1.228200 
0.668460 0.583300 -1.526500 
0.660430 0.799060 -1.141200 
-0.028589 -1.427800 -0.450130 
0.615970 -1.072400 -0.041223 
-0.877250 -0.095489 -0.540350 
0.154880 -1.450100 -1.283300 
0.664210 0.860810 -0.644360 
0.776820 -0.826310 -0.188580 
-0.382800 1.647300 0.074920 
-0.943090 1.214100 -0.013916 
-0.840440 -0.610540 -0.266040 
-0.347350 -1.304600 -0.326130 
0.607800 1.347000 -0.822710 
0.800420 0.256120 -1.674800 
-1.045100 0.389680 -0.635470 
0.253990 -1.355800 -0.627480 
-0.572650 -0.710610 -0.815830 
0.915550 -0.486590 -0.148570 
-0.417470 -0.878680 -1.609500 
0.761300 0.337040 -1.049000 
0.669370 0.866470 -0.846150 
0.443430 1.530300 -0.172260 
-0.979460 1.328600 0.016479 
0.906940 -0.457270 -0.429820 
0.750540 0.930740 -0.312950 
-0.383950 1.523100 -0.819780 
0.566840 1.265600 -1.488900 
-1.091400 0.072406 -0.025236 
0.844800 -0.601370 -0.837300 
-1.176900 0.420370 -0.033115 
-0.001393 -1.485200 -0.244400 
0.670070 0.719990 -1.623500 
-0.024360 -1.433700 -0.883240 
0.071534 -1.518400 -0.857300 
-1.000900 0.292790 -0.728280 
-0.780160 -0.834660 -0.297170 
0.789780 0.272150 -1.119400 
0.935740 0.114800 -0.421650 
0.681810 -0.974440 -0.529670 
0.839660 -0.778050 -0.917550 
-0.516820 -0.709610 -1.589600 
-0.872940 -0.163290 -0.936330 
-0.643240 1.404100 -0.723770 
-1.036200 -0.324270 -0.122680 
-0.578940 1.637300 0.079233 
-0.314520 -1.196300 -0.489470 
0.263840 1.567600 -0.151230 
0.188930 -1.529600 -0.222400 
-0.982140 -0.057109 -0.958380 
0.647210 0.720810 -1.530500 
0.726560 0.791170 -1.702400 
-0.291420 -1.107500 -1.623200 
0.717890 0.469370 -0.983120 
0.785560 -0.847730 -0.630690 
0.657660 1.053200 -0.732760 
0.466650 1.405300 -0.546380 
0.663350 0.982700 -1.601800 
0.724950 1.303400 -0.220890 
-1.068200 0.550100 -0.434240 
-0.626660 -0.705120 -0.443590 
-0.830360 -0.384380 -1.429700 
-0.377410 -1.484100 -0.203930 
0.966280 -0.236180 -0.195620 
0.448980 1.356700 -1.198100 
0.666700 -1.313800 0.155850 
0.210800 1.505100 -0.560170 
-0.549020 -1.223100 -0.316040 
0.024096 -1.473200 -0.770510 
0.250700 -1.492100 -0.449120 
-0.313560 1.488200 -0.267840 
-1.080200 0.369850 -1.034800 
1.004400 -0.030220 -0.830500 
-0.939820 -0.195870 -1.170100 
1.031800 -0.161590 -0.125090 
-0.945130 0.829440 -0.833020 
0.646710 1.161000 -0.527090 
-1.036700 0.387460 -0.836820 
-1.074600 0.494880 -0.635160 
0.738740 0.480970 -0.531480 
0.871210 0.208050 -0.442580 
0.106590 1.733800 -0.023309 
-0.732470 1.339200 -0.322580 
-1.031400 0.313890 -0.204730 
-1.062800 0.434900 -0.398710 
-0.487130 1.442000 -0.708800 
1.031500 -0.815200 0.079585 
-1.040700 0.603980 -0.837220 
-0.644850 1.392700 -0.604440 
-0.307690 -1.269600 -1.050100 
-1.042900 0.327870 -0.934370 
0.666680 -1.035800 -0.729520 
0.865680 -0.611510 -0.233590 
0.695270 0.858760 -0.423080 
-0.989200 0.202400 -0.219710 
-0.137820 -1.414900 -1.313500 
-0.911790 0.928690 -0.338420 
0.171450 -1.539100 -0.126020 
-0.483420 1.487300 -0.820700 
-0.954430 0.086892 -0.218000 
-0.875920 0.955180 -1.145900 
0.699280 0.534190 -1.059000 
-0.975870 0.763660 -0.350150 
-0.546670 -0.743620 -0.984040 
-0.578210 -0.668140 -1.159500 
-0.304110 -1.197100 -1.120200 
-0.942900 0.106990 -0.313610 
-0.924310 -0.507400 -0.217250 
-0.993760 1.091500 -0.010247 
0.962200 -0.114260 -1.133300 
0.698120 -0.983960 -0.051875 
0.518770 -1.252600 0.097771 
0.247070 -1.471200 -0.640890 
0.463710 1.412300 -0.636280 
-0.836370 1.161500 -0.737060 
1.141400 -0.444360 0.020235 
-0.974400 0.772310 -0.765990 
-0.986020 0.567760 -1.337200 
0.970560 -0.146630 -0.801490 
0.724620 0.476240 -0.620690 
-0.690520 1.368700 -0.405300 
0.250320 -1.483900 -0.546210 
0.675260 0.736530 -0.918350 
0.511420 1.424600 -0.260720 
-0.296120 -1.113000 -1.443500 
0.853580 0.331010 -0.384260 
-0.647260 -0.555330 -1.141800 
0.617020 1.320200 -0.444780 
0.660360 1.048500 -1.501600 
-0.349710 -1.234800 -0.382250 
0.778700 0.259780 -1.361400 
-0.685440 -0.491550 -1.319800 
-0.910940 0.685520 -1.370100 
1.065600 -0.040910 -0.141560 
-0.780270 1.250800 -0.733410 
-0.879150 1.046400 -0.427120 
0.297270 1.456100 -0.732050 
0.960850 0.055861 -1.494800 
-1.031900 0.897950 -0.031611 
-0.370090 -1.007600 -1.184400 
-0.403330 -1.147100 -0.402300 
-1.263600 0.414200 -0.002152 
0.910660 0.096640 -1.638500 
0.599870 1.348000 -0.925690 
-0.304950 -1.290800 -0.705940 
1.020800 0.379060 -0.270770 
-1.026200 0.330980 -0.435080 
-0.884830 1.443700 0.025875 
-0.798540 -0.318170 -0.834280 
0.926860 -0.363400 -0.611440 
0.740890 0.411670 -0.680700 
0.191310 1.532600 -0.216220 
0.897080 -0.522780 -0.496160 
-1.081500 0.488140 -0.164520 
0.583250 1.356200 -0.374160 
-1.009500 0.656610 -0.917410 
0.686060 0.525290 -1.297500 
-0.455500 -0.905400 -0.642460 
0.649650 1.106300 -0.596240 
0.899210 0.148400 -0.527380 
0.511800 -1.140900 -0.445190 
-0.642130 -1.062200 -0.327810 
-0.430480 -0.943530 -0.732260 
0.275400 1.502800 -1.308000 
-0.996620 0.716660 -0.828730 
0.152840 -1.545500 -0.321280 
-0.906530 -0.007949 -0.339000 
0.313990 -1.286600 -0.250220 
0.288130 -1.366900 -1.088500 
-0.439720 -0.932000 -0.826040 
0.930530 -1.003300 0.100840 
-0.307180 -1.224600 -0.770090 
-0.292530 -1.299400 -0.517940 
-0.110640 1.529600 -0.726400 
0.079163 -1.592200 -0.110400 
-0.170030 1.532700 -0.789040 
-1.069400 0.979350 0.008134 
0.651970 0.994950 -1.018200 
0.059558 1.541400 -0.505970 
-0.017707 -1.396400 -1.209100 
-0.629060 1.424600 -0.882400 
-0.188150 1.536100 -0.083613 
-0.040144 1.526500 -0.358490 
0.815890 0.198030 -1.440000 
-0.297980 -1.548700 -0.166630 
0.677800 0.794790 -0.519090 
0.124730 -1.544300 -0.769410 
0.911970 0.105480 -1.379700 
-0.443020 -0.896750 -1.177800 
-1.043100 0.541280 -0.942290 
0.940560 -0.216810 -0.917570 
-0.956210 0.821180 -0.419970 
-0.187900 1.594200 0.001868 
-0.518400 -0.821590 -0.556610 
1.119300 0.024652 -0.127480 
0.679430 0.669540 -0.989390 
-1.006200 0.826410 -0.092702 
0.362620 1.454800 -1.418600 
0.496330 -1.462900 0.180340 
-0.086537 -1.427400 -0.790090 
0.403430 1.466800 -0.249330 
-0.912840 0.827780 -1.096600 
-0.841420 -0.210770 -0.499080 
0.527830 -1.162100 -0.010054 
-0.071831 1.559300 -0.088389 
0.716580 0.606520 -0.501330 
0.404910 1.600800 -0.135720 
0.712340 0.464720 -1.131800 
-0.876640 1.024300 -1.221400 
-0.996250 0.764020 -0.165800 
-1.041500 0.377350 -0.315890 
-0.770200 1.302800 -0.231300 
0.640840 0.790490 -1.437200 
0.067525 1.537600 -1.098800 
0.654430 0.984720 -0.604380 
-0.262700 1.501100 -0.347290 
0.689320 -1.053100 0.026383 
-1.103100 -0.200970 -0.056392 
-0.965720 1.008500 -0.055999 
0.387350 1.376900 -1.277500 
0.967310 0.086127 -0.847610 
0.827840 0.883160 -0.273190 
-0.803100 1.229600 -1.027200 
-0.154130 -1.439200 -0.696870 
0.880140 -0.609200 -0.141980 
-0.013303 1.718200 0.012268 
0.925770 -0.572810 -1.174200 
-1.068600 0.157900 -0.056388 
0.041915 -1.411600 -1.269500 
-0.475310 -1.170300 -0.346280 
0.910160 -0.430800 -0.233780 
-0.021627 -1.413400 -1.095600 
-0.178610 -1.377200 -1.531700 
-1.023200 -0.241570 -0.103040 
0.286740 1.442400 -0.820640 
-0.948080 0.935710 -0.119840 
0.856780 -0.557920 -0.935790 
0.264890 -1.365000 -0.981350 
0.786030 -0.899170 -0.019827 
0.894190 0.966810 -0.239290 
-1.109500 0.425040 -0.097532 
-0.644730 1.390500 -0.506600 
0.996560 -0.078558 -0.715430 
-1.107000 0.416120 -1.221400 
-0.148800 -1.417400 -1.080800 
-0.856260 -0.318920 -1.303700 
0.651220 1.058300 -0.940020 
0.831530 -1.008900 0.082944 
0.009695 1.535400 -0.430730 
0.555950 -1.103000 -0.121370 
0.784680 -0.914080 -0.707290 
0.642700 1.056100 -1.125600 
-0.152330 -1.427700 -0.865210 
-0.297050 -1.339500 -0.980160 
-0.308330 -1.209400 -0.973840 
-0.262400 -1.385200 -1.054200 
-0.481480 1.443400 -0.326530 
-0.705360 1.333600 -0.821670 
0.672990 0.666260 -1.140100 
0.547120 1.325400 -1.591000 
-0.068275 1.625400 -0.010137 
-0.297840 -1.351000 -0.770870 
0.871200 -0.513110 -1.038300 
0.156570 1.595800 -0.108080 
-0.145230 -1.427200 -0.335140 
0.268800 -1.370200 -0.028729 
-1.113800 0.288980 -0.052961 
1.016000 0.050343 -0.234970 
0.436640 1.374100 -1.437500 
-0.811810 -0.383500 -0.349850 
0.710130 1.047600 -0.321520 
0.974680 -0.000994 -1.396800 
0.981940 0.012159 -0.427510 
0.660230 0.730490 -1.221400 
0.678360 -0.970710 -0.154420 
-1.052400 1.199500 0.018949 
0.980810 -0.709500 0.042788 
0.727550 0.736020 -0.409810 
0.799850 -0.788750 -0.566520 
-1.056000 0.431950 -0.934980 
-0.953650 -0.149890 -1.093900 
-0.361910 1.481000 -0.139660 
0.985830 0.009165 -1.125500 
0.697110 0.449500 -1.470700 
-0.736780 1.339700 -0.536210 
-0.972560 0.637380 -1.140400 
-0.856990 1.096300 -0.315920 
0.872930 -0.497410 -0.859480 
-1.059600 0.430770 -0.244820 
-0.872720 1.056500 -0.754100 
0.215100 1.499400 -1.224100 
0.176310 1.513400 -0.318910 
-0.925040 0.061567 -0.401640 
-0.949000 0.125220 -0.458190 
-0.922950 -0.599850 -0.232230 
-0.962080 0.630860 -1.234200 
-0.952010 0.769810 -0.998690 
0.166090 1.476900 -1.050900 
0.750190 0.803140 -0.353240 
-0.519350 -0.796560 -0.639700 
-1.051200 0.385490 -0.520770 
-0.875260 1.039000 -0.254450 
-0.848440 -0.189090 -0.627740 
-0.916190 0.934410 -0.445410 
-1.063300 0.466690 -1.151800 
1.067700 0.122530 -0.188660 
-0.027837 -1.439200 -0.681420 
-0.243660 -1.362900 -1.328000 
0.949760 0.419680 -0.298160 
0.068660 -1.504500 -0.526760 
0.783020 0.618890 -0.376760 
0.362970 1.438600 -0.499440 
-0.085456 1.520400 -0.237640 
-0.865450 1.058900 -0.850740 
0.651720 0.928690 -1.136600 
0.092106 -1.664900 -0.058512 
0.882550 -0.570000 -0.408460 
-0.729510 1.302900 -0.940680 
-0.965370 0.772510 -0.899960 
-0.304160 -1.248600 -1.627100 
-0.829910 1.208600 -0.199690 
-0.883390 -0.085678 -0.639530 
0.228930 1.710800 -0.066750 
0.126700 1.500300 -0.975300 
-0.848540 1.138300 -1.133500 
0.796210 0.284880 -0.835390 
-0.845510 1.298400 -0.050203 
-0.148360 1.514900 -0.322640 
-1.261800 0.561130 -0.001617 
-0.084759 -1.420400 -0.962410 
-0.999100 0.122580 -0.133070 
-0.915740 -0.031982 -0.719990 
0.982860 0.049359 -0.605070 
0.689520 0.982450 -0.381580 
0.026508 -1.463200 -1.011900 
-0.297800 -1.311000 -0.427250 
0.592660 -1.055600 -0.394590 
-0.334920 -1.086700 -0.932030 
0.899730 -0.297460 -1.232900 
-0.310380 -1.138800 -1.041500 
0.211560 -1.535200 -0.385100 
-0.937180 0.881170 -0.521790 
-0.524110 -0.710170 -1.497100 
-0.493240 -0.897000 -0.507010 
-0.546290 -0.731910 -1.090600 
0.465430 -1.191000 -0.072167 
0.296480 1.506000 -0.235230 
-0.984630 0.229200 -0.431640 
-0.053341 1.534600 -0.632800 
0.058174 -1.495700 -0.333000 
0.574650 -1.106800 -0.735140 
-0.343320 -0.985350 -1.613000 
-1.120300 0.549250 -0.081442 
-0.951360 -0.128980 -0.151700 
0.683390 0.670460 -0.848820 
-1.104400 0.304880 -1.087300 
0.908570 0.837460 -0.261940 
0.031702 1.541800 -0.922330 
-0.688300 -0.520650 -0.634310 
0.953790 -0.625330 -0.005997 
0.468460 1.371100 -1.088100 
0.436490 1.423600 -0.320450 
-0.982350 0.769640 -0.527160 
0.872690 1.096800 -0.221680 
0.649020 1.120200 -1.042900 
-0.743530 -0.431190 -0.825000 
-0.919880 -0.253860 -0.197730 
-0.958410 0.131230 -0.553650 
-0.477250 -0.868800 -0.889090 
-0.856420 1.144900 -1.282200 
0.108310 1.538000 -0.585250 
-0.620970 1.534800 0.048214 
0.594710 -1.057500 -0.199130 
-0.989120 0.237180 -0.534860 
-0.714320 1.428500 -0.011250 
0.692660 0.604270 -0.781250 
0.933150 -0.267920 -0.827000 
0.081911 -1.482100 -1.101700 
-0.873930 1.005100 -0.935640 
-0.747200 -0.416490 -0.920000 
-0.913020 -0.098480 -0.228560 
-1.180600 0.878190 0.022051 
-0.732530 -0.448030 -1.378200 
-0.540070 1.424900 -0.437830 
-0.887450 0.893550 -1.221300 
0.830250 0.249000 -0.512160 
-0.561660 -0.724600 -0.724210 
0.863760 0.635750 -0.313810 
0.489760 -1.186800 -0.698320 
-0.949040 -0.040092 -0.865560 
-1.064000 0.490560 -0.324060 
-0.527410 1.422600 -0.239570 
0.772950 1.064100 -0.259050 
-1.134300 0.797570 -0.000132 
0.034020 -1.542700 -0.180450 
-0.733730 1.348600 -0.127520 
-1.069200 0.719700 -0.071308 
0.668920 0.919320 -0.478170 
0.923870 -0.334890 -0.413870 
0.207650 1.464000 -1.130800 
0.514700 1.400700 -0.720290 
0.941310 0.591950 -0.297780 
0.860830 0.187790 -0.598600 
-0.630260 1.393000 -0.141740 
0.933580 -0.355510 -1.357900 
-0.377980 1.472200 -0.733530 
0.879170 -0.560440 -0.317360 
0.645000 0.921990 -1.385400 
-1.109600 1.067900 0.024118 
0.066431 -1.494400 -0.429840 
-1.030900 0.517070 -1.218400 
-0.735850 -0.463170 -1.501500 
0.360140 1.446300 -0.586230 
-0.774190 -0.413630 -0.421160 
0.903270 -0.443650 -0.333030 
0.393610 1.418500 -0.824970 
-0.879470 0.950010 -1.049000 
-0.925950 0.018638 -0.618490 
0.435990 -1.264200 0.046425 
0.954440 -0.420940 -0.106100 
-0.613920 -0.636870 -0.939440 
-1.056600 0.491070 -0.850070 
-0.975310 0.069691 -0.728490 
0.909890 -0.170040 -1.477900 
0.640490 1.102800 -1.582500 
-0.033103 1.506900 -0.997670 
0.538860 1.373400 -1.010700 
0.665190 0.927780 -0.740980 
0.943560 -0.119830 -1.395100 
-1.045100 0.603610 -0.344980 
-0.720650 1.331800 -0.692750 
-0.827460 1.206800 -0.292690 
-0.793530 1.215700 -0.941740 
-0.472310 1.444500 -0.174710 
-0.062653 1.556900 -0.801000 
0.264360 1.481000 -0.476640 
-0.609840 -0.789130 -0.409050 
-0.680100 1.363800 -0.245560 
-0.970960 0.132010 -0.649050 
-0.296280 -1.236700 -0.580060 
-1.045400 -0.110380 -0.059247 
0.179470 1.476200 -0.898430 
0.934630 -0.259700 -0.333410 
-1.238500 0.256470 0.006236 
0.989000 -0.096193 -0.886480 
0.955450 -0.190580 -0.284530 
0.659160 1.175400 -0.720910 
0.952460 -0.462990 -1.286300 
0.802360 -0.776170 -0.259600 
0.814780 -0.778580 -0.121480 
0.713170 1.447400 -0.181950 
1.101800 -0.287820 -0.028662 
-0.815820 -0.282890 -0.711040 
0.974670 -0.059725 -1.224900 
0.299710 1.430100 -1.225800 
-0.694780 -0.818360 -0.329470 
-0.923410 1.127700 -0.056313 
-0.640780 -0.542260 -1.377000 
-0.141240 -1.621400 -0.127160 
0.368530 1.433300 -0.412660 
0.431760 -1.212200 -0.621510 
-0.129550 -1.412500 -1.437200 
-0.745240 1.330100 -1.039700 
0.253160 -1.370300 -0.505740 
0.763480 0.318510 -1.593900 
0.364050 -1.523500 0.149600 
-0.213670 -1.416800 -0.977150 
-0.144590 -1.412900 -1.195300 
0.666160 0.801430 -1.026600 
0.328140 1.460300 -0.333530 
-0.144070 -1.429400 -0.434680 
0.286590 -1.326400 -0.907540 
-0.137750 1.713600 0.045594 
-0.583380 1.404900 -0.308960 
0.269750 -1.334800 -0.800490 
0.935800 -0.293370 -0.537830 
0.327730 1.416000 -0.917860 
0.691630 0.603920 -0.916850 
0.575420 1.367500 -0.522390 
0.752660 -1.108000 0.098221 
-0.526360 1.437600 -0.107620 
0.647990 0.793860 -1.304900 
-0.848830 -0.435020 -0.272670 
0.921240 -0.174290 -1.219700 
-0.434170 -1.277600 -0.304700 
-0.807250 -0.302790 -0.600650 
1.187900 -0.026578 -0.086879 
0.930700 -0.550980 -0.071185 
-0.362930 -0.998700 -1.347200 
1.076400 -0.587790 0.041658 
0.972730 -0.062164 -1.459700 
-0.363690 -1.045400 -0.765480 
-1.038000 0.390880 -0.721420 
0.995310 0.036516 -0.771800 
0.653010 0.921810 -1.473700 
-0.763380 -0.400770 -1.124900 
-0.680680 -0.532510 -0.887970 
0.197060 -1.654700 0.012307 
-0.954300 0.815880 -0.273320 
-1.061400 0.546800 -0.237100 
-0.531140 -0.711790 -1.408800 
0.494300 1.355900 -1.516000 
-0.346900 -1.393500 -0.250170 
-0.269470 1.486900 -0.709240 
0.007940 -1.388900 -1.562900 
-1.066800 0.494480 -0.727290 
0.647600 1.214600 -0.459070 
-0.321370 1.464000 -0.612410 
0.945150 -0.215490 -0.424410 
-0.474750 -0.835090 -1.253100 
0.846260 0.450210 -0.359460 
0.259890 1.423800 -1.043000 
-0.465120 -0.827730 -1.421300 
-0.194150 1.510600 -0.183460 
0.847810 -0.637990 -0.635660 
0.910180 0.141120 -0.655400 
0.705360 0.538340 -0.846710 
-1.000800 0.234200 -0.816680 
0.695030 -0.984910 -0.630250 
-0.474350 -0.975120 -0.460220 
-0.999970 0.271090 -0.323950 
0.601400 1.217000 -1.552800 
-0.266230 -1.396000 -0.873150 
-0.302220 -1.172800 -0.641510 
-0.431200 1.438000 -0.634810 
0.643870 1.279000 -0.545130 
-0.841760 -0.234910 -0.400580 
0.877140 -0.450930 -0.958870 
0.978010 -0.096081 -0.394660 
-0.215820 -1.425400 -0.801280 
-0.588460 1.443200 -0.045677 
0.816040 0.391530 -1.680400 
0.720860 0.473830 -0.746360 
0.866700 -0.629900 -0.468880 
-1.055600 0.607420 -0.642480 
0.794210 0.288670 -0.737190 
0.793370 0.295080 -0.610820 
-0.868250 1.099200 -0.179730 
-0.309810 -1.217800 -0.869830 
-0.549210 -0.898470 -0.418340 
-1.238100 0.692880 0.007351 
0.108300 -1.468600 -1.504300 
-0.712130 -0.489590 -0.536910 
0.216810 -1.462700 -1.404400 
-0.898480 -0.077413 -0.793080 
-0.503810 -0.773040 -1.330200 
-0.721200 -0.542690 -0.410660 
-0.988270 0.185490 -0.726580 
0.744340 0.317500 -1.456500 
-0.278820 -1.366900 -0.360200 
0.250770 -1.462500 0.036623 
-0.357180 -0.994910 -1.433400 
-1.026400 0.661800 -0.753430 
0.657120 1.231200 -0.648110 
0.961050 0.094999 -0.712830 
0.165080 1.519700 -0.478990 
0.981510 -0.128840 -0.632570 
0.426820 -1.221600 -0.441280 
0.910580 -0.412800 -1.219600 
0.594360 -1.058000 -0.299570 
0.653930 1.241600 -0.847380 
-1.004400 0.292090 -0.621210 
0.253050 -1.438400 -0.380410 
1.178400 -0.222020 -0.029220 
0.798710 -0.934340 -0.798520 
-0.185150 -1.543700 -0.157010 
-1.119200 -0.077628 -0.019819 
-0.704360 -0.499210 -0.750730 
0.710690 0.649980 -1.711900 
0.670130 0.799020 -0.712950 
0.598530 -1.139800 0.039070 
0.588500 1.277800 -1.278800 
1.153100 0.137820 -0.155370 
0.911720 -0.428520 -0.678890 
0.216940 -1.457500 -1.023200 
0.377150 -1.429000 0.136280 
0.168330 -1.583300 -0.040969 
0.610080 1.538800 -0.164120 
-0.214390 -1.457000 -0.225830 
-1.145400 0.204210 -0.014461 
0.665850 0.867080 -0.952050 
0.676470 0.735550 -0.781000 
-0.181340 -1.377200 -1.618200 
1.084300 -0.672680 0.060106 
-0.264390 -1.402900 -0.702270 
-0.993890 -0.470280 -0.182210 
0.070495 1.527900 -0.324510 
0.844440 0.757480 -0.295720 
-0.854890 1.163300 -0.523760 
0.049423 1.669300 -0.022649 
-0.825920 -0.255790 -0.919890 
0.091513 1.539700 -0.853890 
-0.903640 0.888120 -0.993930 
0.660490 1.098700 -0.402640 
0.746550 -0.877810 -0.327420 
-1.003700 0.712800 -0.421740 
-0.625350 -0.621430 -0.683410 
0.828430 0.217120 -1.039900 
0.993870 -0.055745 -0.513260 
-1.010500 0.043600 -0.090448 
-0.917510 0.927080 -0.227890 
0.581140 -1.188600 -0.814180 
0.661140 0.993160 -0.805090 
0.655950 1.118400 -0.828760 
0.405110 -1.246800 -0.730290 
0.928620 0.180510 -0.343390 
0.653820 1.182100 -0.926270 
-0.649140 -0.587470 -0.589230 
-0.814840 1.269600 -0.129820 
-0.767390 1.299400 -0.619110 
0.884760 -0.535100 -0.646010 
-0.786670 -0.353020 -1.027200 
-0.683310 -0.509190 -1.056800 
0.477680 -1.244300 -0.792450 
0.753720 -0.879460 -0.121830 
-0.244960 -1.398600 -0.445000 
0.049031 -1.430000 -1.423200 
-0.570600 -0.656980 -1.316900 
0.022080 -1.469300 -0.605440 
0.630220 1.028400 -1.685100 
-1.051200 0.095180 -0.921240 
-0.921480 1.030100 -1.339000 
-0.746720 -0.688870 -0.316630 
-0.703600 -0.624380 -0.381030 
-0.962530 0.005786 -0.153000 
0.811310 -0.741840 -0.646400 
-0.811100 1.264400 -0.536600 
-0.925900 0.885490 -0.761010 
0.506210 -1.264500 -0.875190 
-0.901490 0.944090 -0.818870 
-0.871050 1.167400 -0.112420 
0.824830 -0.734650 -0.494240 
0.676740 -0.971160 -0.327600 
-0.036976 -1.436200 -0.312910 
-0.898060 -0.172450 -1.023700 
0.044348 1.590200 -0.083514 
-0.256800 -1.376500 -1.168600 
-0.978230 0.771060 -0.664360 
0.649280 1.244200 -0.988590 
-0.897640 0.892600 -1.377700 
0.235700 -1.423600 -0.914350 
-0.211340 1.486800 -0.615360 
0.359160 -1.260300 -0.125870 
-0.624120 -0.543730 -1.549500 
-0.931630 0.883870 -0.659380 
-0.915200 0.887260 -0.894890 
-0.299530 -1.115600 -1.356600 
0.673780 1.158900 -0.339800 
0.957180 0.064157 -1.209900 
-0.278970 -1.244200 -1.321900 
0.889220 -0.488470 -0.739210 
-0.896190 1.347900 0.003249 
0.964980 0.072336 -1.059900 
1.077300 0.282850 -0.229810 
-0.279500 1.544700 -0.819920 
0.643420 1.047700 -1.370700 
0.915510 -0.176470 -1.329700 
0.935780 -0.306560 -0.242650 
-0.866940 -0.265370 -1.113300 
-0.377010 1.455900 -0.543520 
0.969070 0.078215 -0.344000 
-0.099593 1.523300 -0.438680 
0.513590 -1.361800 0.158360 
-0.325520 -1.108300 -0.703550 
-0.857720 1.068100 -1.010000 
0.848070 -0.673980 -0.329530 
0.095278 -1.534900 -0.253490 
-0.087331 -1.433200 -0.525930 
0.651160 0.861840 -1.219700 
0.976600 0.260000 -0.271440 
-0.505510 -0.820680 -0.822450 
0.512270 -1.145900 -0.292650 
-0.862680 1.110300 -0.669210 
0.964460 -0.176530 -0.547120 
0.711190 -0.923020 -0.239640 
-0.619740 -0.911870 -0.355040 
-0.773120 -0.378090 -0.523220 
0.628890 1.165000 -1.479800 
-0.414310 -1.073800 -0.453620 
-0.873140 -0.288350 -0.267750 
0.088567 1.549500 -0.171300 
-0.872930 -0.108770 -0.443420 
0.922050 0.711700 -0.284080 
0.682090 0.669030 -0.715770 
-0.391200 -1.004400 -0.672120 
0.348420 1.389600 -1.161200 
-0.179040 1.554000 -0.872470 
0.690770 0.667860 -0.557490 
0.588510 -1.043500 -0.611580 
-0.956870 0.826200 -0.595160 
-0.685430 -0.496110 -1.203400 
0.250580 -1.380900 -0.311750 
-0.825920 1.161700 -0.828120 
0.678490 -0.972390 -0.420130 
0.860670 -0.873160 0.036514 
0.817120 -0.822840 -0.834030 
0.877910 -0.582210 -0.555730 
0.402660 -1.340100 0.098887 
0.989860 -0.023280 -0.310160 
-0.868130 -0.199370 -0.316890 
0.729150 0.395250 -1.206700 
0.886150 -0.463510 -1.113500 
-0.541520 -0.719580 -1.243200 
0.823530 -0.711410 -0.854670 
0.277630 -1.325600 -0.378220 
-0.899210 0.995420 -0.539350 
-0.422200 1.459200 -0.243820 
0.868040 0.160440 -1.146700 
-0.322200 1.486100 -0.434300 
0.820330 0.192640 -1.615700 
-0.445420 -0.912730 -0.993320 
0.675230 0.732170 -0.617480 
0.588000 -1.048900 -0.484720 
-0.613670 -0.618840 -1.078300 
-1.006800 0.715950 -0.593620 
0.829140 -0.722320 -0.194340 
0.779370 0.252710 -1.537400 
-0.844260 1.116500 -0.920000 
0.906580 -0.475800 -0.586580 
0.658960 0.855670 -1.571000 
0.143890 -1.470900 -1.177400 
-0.809130 1.248200 -1.136300 
-0.427540 -0.990610 -0.531020 
0.220810 -1.508200 -0.741060 
0.509170 -1.133800 -0.539490 
0.563210 1.326900 -1.180100 
0.098824 1.541100 -0.745890 
0.647220 1.266900 -0.363140 
0.403100 1.427200 -0.732360 
0.926490 -0.223960 -1.019700 
-0.769310 1.537300 0.047739 
-0.666840 1.403700 -0.968550 
-0.479300 -0.849260 -1.061800 
-0.475940 1.477500 -0.046819 
0.265840 -1.335600 -0.173670 
0.635940 1.238400 -1.176000 
-0.538530 -0.984830 -0.386680 
-0.253070 -1.401700 -0.539930 
1.031600 -0.354300 -0.045859 
-0.963820 0.705850 -1.057200 
0.637920 1.172800 -1.266600 
-0.071308 1.537600 -0.890820 
-0.267610 1.723300 0.072895 
-0.481230 -1.087000 -0.382090 
-0.543430 1.499200 0.010925 
0.601110 1.149600 -1.657500 
0.873130 0.168940 -0.963070 
0.362510 1.389700 -1.054200 
-0.258670 -1.298300 -1.452900 
0.415680 -1.223500 -0.207890 
0.804680 -0.780650 -0.365640 
-0.542800 1.425300 -0.644240 
-0.495390 -0.833810 -0.729980 
-0.779140 1.307500 -0.400250 
0.153780 1.521200 -0.668530 
0.681740 0.916730 -1.656100 
0.721470 0.389040 -1.331000 
0.802470 -0.805940 -0.729410 
0.891530 -0.348140 -1.097200 
0.640440 0.988800 -1.251900 
-0.432530 1.455900 -0.435560 
0.180860 -1.513600 -0.938960 
0.506410 1.399700 -0.816470 
-0.310870 1.592600 0.036100 
0.906080 -0.385820 -0.836320 
0.967440 0.078865 -0.952100 
0.194400 1.491200 -0.754700 
0.831410 0.224090 -0.898450 
-0.828790 1.199600 -1.211400 
-0.837320 1.214400 -0.443190 
0.764680 0.341410 -0.941480 
0.852510 -1.112500 0.114890 
-1.002100 0.058516 -0.819270 
-0.637300 -0.606180 -0.772740 
-0.914370 0.014389 -0.524730 
0.863440 0.155130 -1.264700 
1.006000 -0.061514 -0.224860 
0.597840 1.429800 -0.212360 
0.649820 1.180800 -1.109700 
-0.842100 -0.254770 -1.015300 
0.608560 -1.246200 0.127560 
0.889950 0.520720 -0.319770 
-0.999680 0.708670 -0.278580 
0.906470 -0.335720 -0.931880 
-0.511120 -0.782590 -1.170000 
-0.487400 1.430400 -0.536700 
0.712950 0.448340 -1.565100 
1.118500 -0.153190 -0.064996 
-0.925170 0.763030 -1.159300 
0.622490 1.298000 -1.086300 
-0.750720 -0.416160 -0.600640 
0.400990 -1.290600 -0.922470 
0.779260 -0.833640 -0.443870 
0.762510 0.452980 -1.651900 
-0.152440 -1.443100 -0.598260 
-0.895170 0.826260 -1.319500 
0.741080 0.407960 -0.842340 
0.819190 -0.696310 -0.731540 
0.628810 1.166400 -1.392600 
-0.851560 -0.314180 -1.195700 
-0.408620 -0.957230 -1.104700 
-0.561190 -1.130700 -0.334550 
-0.828680 1.213900 -0.620340 
0.694980 0.603540 -0.621010 
-0.350740 -0.991300 -1.522100 
0.247410 -1.398900 -0.724560 
0.654260 1.040300 -0.469490 
-0.011545 -1.406100 -1.367000 
-0.585060 -0.688020 -0.632070 
0.290780 -1.615700 0.098121 
-0.912700 0.759630 -1.253900 
-0.467980 -1.365300 -0.267640 
0.568460 1.265200 -1.402600 
-1.035700 0.216890 -0.938420 
0.825460 0.234700 -0.668390 
1.001800 0.156450 -0.249700 
0.235980 -1.441200 -0.209730 
0.999960 -0.043175 -0.970150 
-0.775540 -0.530710 -0.332300 
0.226600 -1.444300 -1.117800 
0.375350 -1.276900 -0.817740 
0.766250 -1.213500 0.132600 
-0.278310 -1.316100 -1.245700 
-1.055600 0.477190 -1.033300 
0.428010 1.389700 -0.986510 
0.104080 -1.438200 -1.356700 
0.657150 0.658570 -1.346700 
-0.068834 -1.521200 -0.168600 
-0.404410 -0.947400 -1.260500 
0.602610 1.363000 -0.290400 
-0.210050 1.507400 -0.429810 
-0.843790 -0.521050 -0.266770 
-1.013500 0.589730 -1.028800 
0.070199 -1.517000 -0.689860 
-0.371760 -1.018600 -1.034300 
0.052101 1.550100 -0.661900 
0.911900 -0.229750 -1.123300 
-0.763310 1.249000 -0.845930 
0.866450 0.144180 -1.517100 
0.322940 -1.278400 -0.441270 
0.294370 -1.298300 -0.706800 
0.691580 0.581760 -1.619800 
-0.427360 1.541900 0.022857 
0.678580 0.596440 -1.217700 
-0.895550 0.998080 -0.639700 
0.884340 -0.400440 -1.028500 
-0.500280 1.586000 0.064431 
0.329480 -1.264700 -0.615110 
0.920710 0.135330 -0.786350 
0.869090 0.181250 -0.726850 
-0.004805 1.558300 -0.734660 
-1.030900 0.655970 -0.207400 
0.309680 -1.308800 -0.074018 
0.508750 -1.143600 -0.183050 
0.236990 -1.439200 -0.824760 
0.242590 -1.437300 -1.212400 
0.176340 -1.548800 -0.677110 
0.172000 -1.554300 -0.579040 
0.166290 -1.553800 -0.481490 
-0.061504 -1.402000 -1.505700 
-0.285600 -1.353500 -0.607780 
-0.334650 -1.071100 -1.111500 
-0.355620 -1.066600 -0.611770 
-0.424330 -0.881190 -1.515700 
-0.648240 -0.572040 -0.998840 
-0.852000 -0.174790 -0.735600 
-1.157200 0.614200 -0.032867 
-0.908640 1.051600 -0.115910 
-0.266800 1.484700 -0.533070 
-0.156420 1.505100 -0.540110 
0.117800 1.526200 -0.400580 
0.219860 1.497200 -0.396590 
0.495330 1.394400 -0.915840 
0.690960 1.223100 -0.283780 
0.642990 1.115500 -1.196100 
0.705340 0.538890 -0.683820 
0.969610 0.056397 -0.507030 
0.956130 -0.196420 -0.715210 
0.919350 -0.410830 -0.520140 
0.992820 -0.289650 -0.114240 
