0.505940 1.484000 -1.454800 
0.394880 -1.491100 -0.252020 
0.648020 1.385100 -1.363700 
1.189000 -0.088168 -0.066624 
-0.940170 -0.437800 -1.058500 
1.043100 0.252630 -0.366440 
0.974230 0.323120 -1.240400 
-0.988450 -0.332460 -0.977180 
-1.081000 -0.265780 -0.085318 
-0.069593 -1.553300 -1.279500 
-0.713400 -0.764790 -1.538400 
-0.227540 1.686200 -0.243270 
-0.015882 1.742300 0.017115 
0.479340 1.606300 -0.158720 
-0.194530 -1.529100 -1.153500 
1.178400 -0.222020 -0.029220 
-0.846320 -0.614460 -0.996640 
-1.119800 0.821870 -1.090000 
1.101400 0.143870 -0.384540 
-0.712960 -0.855750 -0.452490 
-0.296830 -1.430100 -1.608000 
-0.775160 1.484200 -0.382120 
-1.121500 0.889730 -0.771030 
-1.026600 -0.402180 -0.151600 
0.986660 0.359220 -0.373150 
1.089500 0.081315 -1.450300 
-0.545320 -1.186300 -0.362840 
-1.197700 0.103060 0.010182 
1.108900 -0.382600 -0.104140 
-1.158100 0.940140 0.024735 
0.989250 -0.804550 -0.244460 
0.246740 1.611400 -1.192700 
-1.013200 -0.307910 -0.366860 
-0.765230 1.489600 -0.215230 
0.774960 -1.132800 -0.109370 
-0.866220 1.406200 -0.248590 
0.824470 0.831500 -1.654900 
1.035100 0.200770 -1.388700 
0.775410 -1.132400 -0.372450 
0.841700 0.999220 -0.829830 
-0.979120 1.248900 -0.512840 
0.816820 0.981600 -1.380100 
-0.810670 1.453100 -0.107540 
-0.950750 -0.511610 -0.239450 
-0.695180 1.484300 -0.925690 
-0.350230 1.662200 -0.183790 
-1.035700 1.133200 -0.516250 
0.356070 1.570500 -1.301200 
-0.667850 1.549300 -0.366990 
0.759250 -1.117700 -0.766210 
-0.046904 1.680300 -0.707110 
0.731760 -1.181900 -0.009155 
0.106590 1.733800 -0.023309 
0.972950 0.480720 -0.295130 
0.269420 -1.588500 -0.497410 
1.086500 0.017722 -1.602100 
0.112020 -1.605200 -1.030900 
-0.015083 -1.615600 -0.380210 
-0.006452 -1.556800 -1.372900 
0.634470 -1.270400 -0.503400 
0.332680 1.635000 -0.229490 
-0.704740 -0.847690 -0.999270 
-0.844200 -0.629680 -0.873160 
-0.416000 1.610000 -0.775700 
-1.064600 1.012800 -0.913920 
0.191240 1.631000 -1.023900 
1.048700 0.330580 -0.251860 
1.057200 -0.463800 -1.277000 
1.013400 -0.746710 -0.338270 
-0.665540 -0.922670 -0.878020 
-0.713630 -0.856730 -0.631990 
0.860220 0.569180 -1.510000 
1.106700 0.166530 -0.251750 
0.730050 1.296000 -1.286400 
0.769020 -1.126300 -0.511810 
1.030600 -0.639940 -0.777220 
1.087600 -0.475400 -0.231330 
0.664910 1.495000 -0.173710 
0.456020 1.518200 -1.329900 
-0.740120 -0.779730 -1.095400 
-0.440210 -1.407600 -0.246720 
0.859840 0.845570 -0.417390 
-0.550160 1.602700 -0.340420 
0.291240 1.693200 -0.087821 
0.823440 0.988690 -1.257100 
-0.426670 1.615000 -0.649340 
0.034942 -1.660700 -0.082431 
0.668330 -1.211000 -0.783320 
0.557820 1.467300 -1.262100 
0.519120 1.521800 -1.017100 
-0.975450 -0.407680 -0.281920 
-0.833650 -0.595680 -1.320600 
0.703560 1.359500 -1.153800 
0.866520 0.786950 -0.525370 
0.376700 1.619200 -0.533040 
1.016000 0.295670 -0.507320 
-0.829170 1.493300 0.035838 
0.987270 0.335680 -0.887080 
-0.584660 -1.066400 -0.501820 
-0.869700 -0.597120 -0.720780 
0.926760 0.458810 -0.927210 
-1.031400 1.134500 -0.636440 
1.049200 0.138620 -1.638300 
0.910570 0.526550 -0.462580 
-0.917520 -0.510150 -0.371540 
-0.131580 -1.582900 -0.372950 
0.490250 -1.376200 -0.885910 
-0.494820 1.612600 -0.498690 
0.101770 -1.633100 -0.344900 
-1.175600 0.272380 -1.020400 
-1.149300 0.162460 -0.880640 
1.015000 0.268010 -1.121500 
0.874950 0.715460 -0.431670 
-1.105600 0.950700 -0.607820 
-0.356800 -1.439400 -0.917580 
-0.918250 1.287100 -1.009600 
-1.138500 0.826570 -0.866890 
-0.562810 -1.068500 -1.150600 
0.794940 1.113700 -1.324500 
-0.216050 1.683200 -0.110550 
1.031300 -0.577790 -1.162900 
0.785930 1.252700 -0.679750 
1.125800 -0.268420 -0.644040 
-0.640050 -0.878260 -1.601900 
0.164660 -1.631700 -0.499620 
-0.651860 -0.878930 -1.464000 
-1.028700 -0.275400 -0.511890 
-1.122400 -0.140900 -0.032805 
1.056500 0.234030 -0.632580 
1.065200 -0.528010 -0.798020 
0.931350 0.463360 -0.744510 
-0.856540 1.383100 -0.773850 
0.199460 1.671600 -0.556260 
0.905010 -0.912320 -0.856870 
0.047917 -1.626000 -0.636360 
0.458030 1.528000 -1.184300 
-0.308490 -1.491500 -0.817210 
-0.047180 1.689100 -0.573870 
0.988230 -0.749040 -0.772180 
-0.538250 1.607200 -0.208920 
0.635170 -1.277700 0.000367 
-0.776860 -0.652610 -1.553900 
1.134100 -0.040031 -1.043300 
0.353190 1.571900 -1.163600 
-0.912200 -0.501670 -0.958500 
-0.840530 -0.599200 -1.205300 
-1.266000 0.489580 -0.003238 
0.448150 -1.419000 -0.788270 
-0.255400 -1.521000 -0.912670 
-0.946170 1.302500 -0.222470 
-1.224000 0.508730 -0.504080 
0.076945 1.639400 -1.039400 
-0.430090 -1.359100 -0.348870 
-0.905100 1.356900 -0.132010 
0.959440 -0.803130 -0.903230 
-1.076400 0.948140 -1.051500 
0.843930 0.710390 -1.427200 
1.101200 -0.427480 -0.367450 
0.075267 1.660400 -0.913350 
-1.147200 0.620050 -1.332800 
0.929580 -0.921020 -0.213690 
0.358380 -1.492500 -0.798440 
-0.615410 1.566000 -0.501450 
-0.426180 -1.294800 -1.315400 
-1.056400 -0.187580 -0.320320 
1.138400 0.029076 -0.378990 
0.777690 -1.134900 -0.222520 
-0.609310 -1.028800 -0.637820 
0.146410 -1.663300 -0.027070 
0.875550 0.725810 -0.635460 
-1.136400 0.870310 -0.099054 
0.644270 1.375600 -1.488300 
-0.776880 1.476700 -0.499110 
-0.744920 -0.892050 -0.308490 
0.814780 1.130400 -0.916910 
0.829650 0.994230 -1.141100 
-0.466350 1.627900 -0.114190 
-1.130400 0.754660 -1.179400 
-0.907810 -0.488650 -1.194400 
1.125300 -0.109110 -1.133000 
0.755160 1.315300 -0.792800 
-1.101400 -0.051884 -0.367960 
-1.154000 0.824330 -0.517580 
0.860950 0.725210 -1.108400 
1.083400 0.187450 -0.509130 
0.261830 1.660000 -0.461380 
-1.167100 0.628570 -1.145600 
0.400210 -1.484200 -0.372690 
1.019700 -0.694970 -0.665200 
-0.835580 1.377800 -1.070800 
0.400350 -1.447400 -0.901660 
1.144900 0.011574 -0.496770 
-0.974120 1.247600 -0.653430 
0.764490 1.307800 -0.583810 
-0.370880 -1.428300 -0.420460 
0.680990 1.420400 -0.798290 
-0.197260 -1.600600 -0.139210 
0.348570 -1.471200 -1.045800 
0.497030 -1.400700 -0.459090 
-0.978130 1.185200 -1.057200 
0.717860 -1.169100 -0.607220 
0.852510 -1.112500 0.114890 
-0.962900 -0.423170 -0.428230 
0.868510 0.576610 -1.378800 
0.908120 0.526590 -0.835910 
0.941310 0.591950 -0.297780 
-0.196180 -1.541700 -1.010300 
0.382280 1.617000 -0.410730 
1.141700 -0.029744 -0.873190 
0.894360 -0.974600 -0.378490 
-0.907510 -0.531680 -0.496160 
0.308900 -1.561800 -0.342290 
1.023100 0.281540 -0.787810 
0.766680 1.295300 -0.446010 
-0.815580 -0.777170 -0.283980 
1.071400 -0.670160 0.036033 
-0.351960 -1.407800 -1.278000 
-1.238500 0.256470 0.006236 
0.875260 0.582380 -1.255800 
-0.419690 -1.285200 -1.438900 
0.771750 1.083000 -1.676800 
-0.803590 1.417700 -0.879950 
0.624760 1.479000 -0.282500 
-0.824100 -0.596920 -1.444200 
0.339690 -1.531400 -0.153400 
0.834070 1.063300 -0.731070 
0.147140 -1.631800 -0.140550 
-0.554500 1.580000 -0.606920 
0.839110 1.223200 -0.207930 
0.404200 -1.463500 -0.680410 
-1.052400 1.199500 0.018949 
-1.096600 0.813170 -1.280900 
0.834650 0.850890 -1.343600 
1.053700 -0.470060 -1.127900 
-1.111700 0.939050 -0.257670 
-0.119740 -1.498300 -1.573800 
0.450350 1.583000 -0.288010 
1.028800 0.197440 -1.516900 
0.922050 0.711700 -0.284080 
-0.356960 -1.428000 -1.054900 
0.386730 -1.549700 0.161130 
-1.216600 0.385760 -0.514150 
-1.066900 -0.157430 -0.501700 
1.091500 0.167530 -0.772580 
-1.022900 -0.232930 -0.927040 
-0.724270 1.500200 -0.631280 
0.314410 1.636300 -0.634250 
-0.941970 -0.456390 -0.843840 
-1.011000 1.185500 -0.238970 
0.248940 1.629000 -0.924260 
-1.200100 0.299260 -0.237680 
-0.299300 -1.507000 -0.512770 
0.703420 1.395400 -0.377220 
-0.422920 1.645900 -0.289400 
-0.772360 -0.714580 -1.195900 
-0.706760 1.575800 0.059806 
-0.127830 -1.523700 -1.452500 
-0.003071 -1.546500 -1.488800 
0.894190 0.966810 -0.239290 
0.909300 0.444980 -1.329400 
0.050324 -1.612000 -0.924070 
1.020000 0.273210 -0.980470 
-1.201800 0.816860 0.017813 
1.095600 0.082654 -1.328000 
0.999750 -0.690980 -1.048700 
0.852630 0.930810 -0.740730 
0.170430 -1.607600 -0.932790 
-0.546140 -1.136600 -0.659590 
1.142900 -0.138820 -0.650970 
1.060400 -0.579250 -0.626210 
0.843680 0.631000 -1.605500 
1.181900 0.031513 -0.108300 
0.196450 1.664100 -0.678930 
1.130700 -0.251360 -0.521020 
1.055900 -0.616790 -0.275380 
0.168390 -1.626800 -0.652080 
0.038440 -1.625700 -0.190060 
1.124900 -0.521130 0.034782 
0.823890 1.063700 -1.026800 
-0.607530 -1.091400 -0.356730 
-0.191570 -1.515100 -1.304900 
-1.112800 0.033319 -0.901740 
0.580420 -1.298400 -0.845140 
-0.192390 -1.565800 -0.498640 
0.889180 0.592330 -0.932420 
-1.010800 1.182000 -0.120750 
0.831260 0.692390 -1.702600 
-0.980130 -0.394000 -0.535710 
-0.887030 1.334600 -0.887820 
1.084600 -0.104450 -1.546500 
-1.104000 0.744480 -1.370200 
1.009600 -0.806210 0.032988 
-1.085500 1.010700 -0.506330 
0.158200 1.692300 -0.124710 
0.959700 -0.864010 -0.369350 
-0.460500 -1.284900 -0.452950 
-0.609880 1.551200 -0.703350 
-1.155000 0.814940 -0.231270 
-0.041249 1.639800 -0.948980 
-1.208600 0.635650 -0.503130 
0.727200 1.368700 -0.690170 
-0.672340 -0.966720 -0.368280 
-0.252360 -1.535000 -0.655730 
0.801600 1.121000 -1.205000 
-1.215300 0.573880 -0.638220 
0.911280 0.527990 -0.584670 
0.471760 1.557500 -0.890190 
-0.870320 1.404200 -0.374530 
0.846950 0.861560 -1.108900 
-1.085700 0.880860 -1.185000 
-1.196900 0.509930 -1.022000 
-0.651570 -0.953820 -0.501820 
0.272530 -1.566400 -0.824850 
-0.991420 -0.339250 -0.860200 
-1.221100 0.570290 -0.403720 
-1.089100 1.006900 -0.380550 
-1.012300 1.131000 -0.937330 
0.880210 -0.967410 -0.754050 
-0.463430 -1.271100 -0.917220 
0.241030 -1.603100 -0.064971 
-0.329940 1.711900 0.080274 
-0.393680 -1.401000 -0.759400 
-1.030800 1.001200 -1.351800 
-1.150400 0.761400 -0.988970 
0.559640 1.522500 -0.367270 
0.733690 1.206200 -1.647600 
0.866740 0.728540 -0.968210 
0.210110 1.669600 -0.233200 
-1.217700 0.375080 -0.357280 
-0.524900 -1.168900 -0.515090 
-1.012500 -0.311350 -0.639800 
-0.949410 1.304600 -0.357940 
-1.176900 0.699870 -0.883570 
-0.855650 -0.617610 -0.428970 
-0.087399 1.697500 -0.092106 
-0.900140 1.282600 -1.171500 
-0.653490 -0.954220 -0.712080 
-0.729100 -0.827140 -0.758100 
-1.076900 1.014000 -0.725850 
-1.074800 -0.081211 -0.882200 
0.967390 0.318610 -1.361400 
-1.012200 1.190600 -0.385150 
0.949820 0.390840 -1.058900 
0.301290 1.598400 -1.053900 
1.138700 -0.153290 -0.778020 
-1.091900 -0.071996 -0.251370 
1.038600 -0.584480 -0.896320 
0.494470 1.566100 -0.500720 
0.554480 -1.414500 0.176200 
-1.063500 1.060800 -0.218690 
-1.193000 0.269080 -0.511150 
0.959390 0.313390 -1.489600 
-0.572050 -0.991160 -1.609800 
0.358390 -1.515700 -0.490940 
0.493600 -1.386000 -0.679660 
-0.413490 -1.370900 -0.535370 
0.855660 0.721000 -1.221600 
-0.993220 -0.289710 -1.238500 
0.541700 -1.353800 -0.554050 
-0.292140 -1.529700 -0.213360 
-0.430220 -1.304400 -1.198700 
-0.450930 -1.308200 -0.622110 
0.773490 1.281900 -0.315810 
0.591010 -1.319200 -0.412090 
0.269330 -1.553700 -0.940850 
-1.198700 0.637380 -0.775860 
0.360010 1.594600 -0.942340 
0.857010 0.865170 -0.836530 
-0.585550 -0.994770 -1.427800 
-0.044695 1.698000 -0.441500 
0.792400 1.106100 -1.451400 
-0.768900 1.461000 -0.750720 
-0.633840 -0.964290 -1.006000 
0.880730 0.586780 -1.140800 
-0.580430 1.588100 -0.055681 
0.264370 -1.537900 -1.083700 
-1.074200 -0.166100 -0.140510 
0.866300 0.558390 -1.697400 
1.108500 -0.380720 -0.507630 
-0.522200 -1.174000 -0.765650 
0.364340 1.605800 -0.825740 
1.071600 -0.225590 -1.471800 
-1.039700 -0.191510 -1.031000 
0.940200 -0.858990 -0.761000 
0.214850 -1.618900 -0.378730 
-0.886890 -0.660630 -0.251990 
0.587710 1.502500 -0.732320 
0.872690 1.096800 -0.221680 
-1.126600 0.010765 -0.095982 
-0.298830 1.644800 -0.663650 
0.870920 0.729410 -0.839090 
-0.854560 -0.626840 -0.597060 
-0.514960 -1.109000 -1.476200 
-0.432320 -1.317200 -1.053200 
1.103800 0.085537 -1.211500 
0.194110 1.655400 -0.806920 
-1.192600 0.692190 -0.233390 
-0.897860 -0.487860 -1.345600 
-1.140700 0.072960 -0.362870 
-0.444400 -1.220000 -1.568800 
1.095400 -0.408180 -0.776620 
-1.023400 1.133800 -0.786760 
1.124300 -0.299750 -0.409800 
0.792230 1.191300 -1.047400 
-1.171900 0.562380 -1.238900 
-1.198600 0.396930 -0.884580 
-0.737980 -0.802020 -0.900040 
0.543450 1.536500 -0.599480 
-0.289270 -1.507100 -0.371840 
-0.578940 1.637300 0.079233 
0.807640 -1.071200 -0.662620 
0.036577 1.701100 -0.105270 
1.075500 -0.528130 -0.099031 
-0.594330 -1.001800 -1.262100 
0.808020 0.958240 -1.694600 
-1.102600 -0.032736 -0.506930 
-1.108600 0.888070 -0.962240 
-0.596580 -1.035000 -0.912270 
-0.454530 1.649300 0.022882 
1.090100 -0.458070 -0.629140 
0.859350 -1.030700 -0.279430 
0.966660 -0.944110 0.094246 
1.072500 -0.353450 -1.250500 
-0.242710 -1.467000 -1.515000 
0.818950 1.161300 -0.303860 
-1.179900 0.633370 -1.021700 
0.989320 0.344400 -0.677740 
0.302660 -1.497700 -1.181300 
0.802180 1.036300 -1.548600 
-0.494530 -1.184600 -1.193400 
0.272960 -1.580400 -0.647560 
-0.985480 1.120300 -1.298800 
1.057700 0.219830 -0.875100 
0.808090 1.172300 -0.433230 
0.957410 -0.860650 -0.106390 
0.901390 0.439010 -1.456900 
0.884860 -0.968040 -0.624020 
0.777310 1.256100 -0.899930 
-0.979460 1.328600 0.016479 
1.031900 -0.689650 -0.437600 
-0.299310 1.673100 -0.362130 
0.841490 0.857080 -1.222700 
0.627940 1.461700 -0.906670 
-0.657300 1.555200 -0.230840 
0.846600 0.973940 -0.375850 
1.005700 -0.750290 -0.535790 
0.075993 1.678100 -0.742070 
0.765840 1.248200 -1.146400 
-0.083065 -1.638500 -0.114670 
0.566100 1.483500 -1.116800 
-0.389210 -1.411900 -0.640430 
-0.459060 -1.289300 -0.763270 
-1.177400 0.284020 -0.873510 
1.069700 -0.346840 -1.382200 
-0.367640 1.649500 -0.498640 
0.752240 1.231100 -1.383800 
0.141680 1.686600 -0.461160 
1.117500 0.118580 -0.641150 
1.119900 -0.282040 -0.768760 
1.145700 -0.008152 -0.648860 
-1.135100 0.883240 -0.388960 
-1.150000 0.826310 -0.644420 
0.853530 0.919280 -0.513420 
0.899230 -0.981160 0.010786 
-1.177700 0.759470 -0.390370 
-0.563750 -1.081800 -1.010400 
0.679970 1.320500 -1.603400 
-0.765720 -0.709380 -1.312300 
0.882980 0.655400 -0.533350 
0.428970 1.593300 -0.634720 
0.114170 -1.563600 -1.411200 
-1.119000 0.042649 -0.749420 
0.049206 -1.621300 -0.761870 
-0.528030 -1.152400 -0.914900 
0.754130 1.396100 -0.189130 
-0.072026 -1.569500 -1.132000 
0.580810 -1.303100 -0.728760 
-0.993310 1.125900 -1.177900 
0.666700 -1.313800 0.155850 
0.685630 -1.230500 -0.359510 
0.826230 0.843030 -1.471800 
-0.892840 -0.496730 -1.468500 
-1.048600 -0.196790 -0.650090 
-0.698990 1.533000 -0.054490 
0.766250 -1.213500 0.132600 
-0.074537 -1.603700 -0.510940 
-0.949650 -0.386990 -1.334400 
1.113700 -0.342460 -0.270350 
1.015700 -0.734510 -0.054447 
0.051612 -1.591900 -1.127900 
-0.906610 1.348600 -0.627680 
0.698290 1.410200 -0.508990 
-0.073246 -1.582100 -0.991300 
0.217310 -1.547100 -1.293100 
-1.062100 0.870720 -1.375000 
0.951150 0.308820 -1.625100 
0.591430 -1.323400 -0.290110 
-1.081100 -0.083576 -0.635280 
0.924460 -0.917420 -0.482580 
-1.225100 0.502510 -0.306560 
-1.189100 0.504640 -1.139300 
0.530780 -1.376800 0.062561 
-0.141390 1.738400 0.049984 
0.917210 0.451050 -1.171800 
-0.074364 -1.600700 -0.633020 
-1.238100 0.692880 0.007351 
-0.766070 -0.767430 -0.528180 
0.450750 -1.433400 -0.567170 
-1.039000 1.005600 -1.195100 
-1.206300 0.513080 -0.875980 
0.895920 0.593880 -0.692290 
-0.523780 -1.117100 -1.307500 
1.117200 0.097501 -0.926330 
-0.657730 1.520500 -0.809540 
-0.196060 -1.556600 -0.775990 
-0.869830 1.399000 -0.499750 
-0.669020 -0.895570 -1.105600 
-0.693090 -0.823100 -1.371600 
-1.029100 1.070400 -1.052000 
0.244760 -1.638900 0.055699 
0.891860 -0.975440 -0.108540 
1.131100 -0.244650 -0.139590 
0.053488 -1.572400 -1.269900 
-1.130000 0.049018 -0.239330 
0.251860 -1.595400 -0.190440 
1.155700 -0.368280 0.004630 
-0.538020 1.569900 -0.792200 
-0.238440 1.675900 -0.497870 
-1.195400 0.688270 -0.108840 
0.410610 1.564800 -1.042800 
0.685000 -1.230700 -0.104060 
-1.160900 0.154480 -0.505360 
1.099900 -0.107710 -1.429900 
-1.120100 0.040507 -0.602170 
0.819460 -1.084900 0.002169 
1.034300 -0.672120 -0.149240 
-1.195800 0.392520 -1.020100 
-1.206700 0.395700 -0.751200 
1.147200 -0.111470 -0.465640 
-1.158100 0.166410 -0.636390 
-1.220800 0.561630 -0.111030 
1.132500 -0.164280 -0.908460 
-0.074303 -1.598000 -0.247080 
0.852190 -1.023700 -0.508240 
-1.214200 0.513060 -0.760510 
-0.334540 1.668100 -0.026643 
-0.169070 1.693300 -0.342460 
-1.020300 -0.242120 -1.132400 
-0.496480 -1.197300 -1.048900 
1.112700 -0.291740 -0.895590 
0.744310 1.312300 -1.024900 
-1.044300 -0.187240 -0.768480 
1.000300 -0.692760 -0.908320 
0.170130 -1.620500 -0.775740 
1.112000 -0.110360 -1.278100 
0.852790 0.864850 -0.967520 
0.422140 -1.472400 0.085330 
-1.189900 0.700310 -0.634740 
-0.776950 -0.759780 -0.395930 
0.847250 0.992640 -0.618260 
0.824710 1.123100 -0.606270 
1.071100 -0.561110 -0.379210 
0.802890 1.193400 -0.779700 
-0.381110 -1.334100 -1.614300 
0.435450 -1.455800 -0.137620 
-0.186150 -1.562100 -0.268140 
1.144700 -0.089512 -0.344720 
0.747920 1.221000 -1.513100 
1.144600 -0.116350 -0.176490 
-0.074101 -1.594700 -0.791300 
0.088647 1.691000 -0.236110 
1.112400 0.090691 -1.064600 
0.908570 0.837460 -0.261940 
0.901680 0.522200 -1.030500 
-0.776030 -0.732200 -0.986910 
-1.193000 0.255440 -0.391330 
-1.164000 0.141160 -0.095884 
1.045000 0.206020 -1.228100 
-0.967140 -0.413650 -0.733800 
-1.192200 0.383260 -1.156300 
-1.109600 1.067900 0.024118 
-0.701640 -0.829650 -1.211400 
-1.028000 -0.277180 -0.237230 
-0.788520 -0.735390 -0.643080 
0.077610 1.687300 -0.576270 
0.046202 -1.628900 -0.514020 
0.589500 -1.325900 -0.161090 
-1.199400 0.282950 -0.111290 
-0.291930 1.639200 -0.776750 
-0.589170 -1.058700 -0.766670 
-1.169100 0.227720 -0.760390 
-1.224700 0.424200 -0.103190 
-0.044324 1.673100 -0.819240 
1.133100 -0.206840 -0.278320 
-0.505960 -1.104200 -1.612600 
0.954330 0.407310 -0.501170 
1.112800 -0.235340 -1.052900 
0.716090 1.370100 -0.909040 
1.086900 -0.414270 -0.897600 
0.477590 -1.414800 -0.032120 
0.627630 -1.262400 -0.623650 
0.492160 -1.411600 -0.240010 
0.373870 -1.497900 -0.029679 
0.168360 -1.574100 -1.190600 
-0.307900 -1.464400 -1.162700 
-0.344550 -1.392700 -1.439300 
-0.755840 -0.707320 -1.437400 
-0.802470 -0.706270 -0.771210 
-0.965410 -0.384380 -1.154600 
-0.929340 -0.494830 -0.634010 
-1.077400 -0.078700 -0.767020 
-1.190000 0.278900 -0.631270 
-1.164900 0.166410 -0.210770 
-1.219000 0.450970 -0.648120 
-1.165400 0.763950 -0.767410 
-1.067200 1.056500 -0.093077 
-0.956360 1.239800 -0.907490 
-0.934250 1.294900 -0.763620 
-0.821600 1.431100 -0.643790 
-0.173280 1.671500 -0.638020 
-0.097987 1.697000 -0.225980 
0.022590 1.699900 -0.327800 
0.145130 1.686700 -0.346780 
0.265360 1.657000 -0.344830 
0.477560 1.563600 -0.771600 
0.605670 1.496200 -0.483550 
0.668490 1.414500 -1.027300 
0.645020 1.462700 -0.634790 
-0.163780 1.652300 -0.880200 
0.836340 1.050400 -0.500450 
0.861940 0.859620 -0.628380 
0.866220 0.796250 -0.746940 
1.141300 -0.005629 -0.244160 
0.908500 0.431650 -1.688200 
1.136300 0.043089 -0.786220 
1.087000 -0.232930 -1.329000 
1.061400 -0.472690 -1.009400 
1.029800 -0.582120 -1.030000 
1.086100 -0.357370 -1.056700 
1.081000 -0.510130 -0.515800 
1.099800 -0.236150 -1.189000 
0.949630 -0.860550 -0.593470 
0.687350 -1.232800 -0.223710 
-0.168910 1.662700 -0.760850 
0.875530 0.497650 -1.598000 
