-1.060700 1.072800 -0.528320 
-1.154500 0.810380 -0.134700 
-0.866840 -0.540760 -1.336400 
0.788240 1.341400 -0.195610 
-1.186000 0.700710 -0.727730 
-1.140500 0.826790 -0.835050 
-0.517950 1.615800 -0.025333 
-1.062100 0.870720 -1.375000 
-1.163600 0.696260 -1.040400 
-0.011536 -1.600200 -0.942860 
0.712130 -1.163300 -0.753640 
-0.431690 1.630600 -0.515580 
0.889180 0.592330 -0.932420 
-0.751870 -0.707350 -1.481000 
-0.065578 -1.535400 -1.474400 
1.141300 -0.005629 -0.244160 
1.089800 -0.044112 -1.576800 
0.823070 0.895400 -1.699800 
-1.038800 1.124500 -0.244950 
-1.113500 0.889050 -0.898480 
-0.657300 1.555200 -0.230840 
0.856180 0.644710 -1.382000 
0.321890 1.640700 -0.436850 
1.187900 -0.026578 -0.086879 
0.220510 1.685600 -0.125090 
-0.225850 1.685800 -0.221430 
1.069800 -0.286780 -1.428700 
0.880730 0.586780 -1.140800 
0.554580 1.459600 -1.338700 
-0.988990 -0.333440 -0.947020 
-0.682130 -0.908270 -0.659740 
0.709240 1.264700 -1.627600 
-0.553410 -1.121400 -0.738850 
0.425790 -1.456800 -0.043410 
0.536890 -1.344300 -0.727360 
-0.668380 -0.892640 -1.141600 
0.790030 1.246500 -0.563560 
0.112020 -1.605200 -1.030900 
0.350660 1.662500 -0.125990 
-0.134400 -1.586500 -0.520460 
0.662870 1.407800 -1.133700 
0.740850 1.309200 -1.096400 
0.112770 -1.577200 -1.234500 
0.990030 -0.799440 -0.042254 
1.087200 -0.466370 -0.173780 
-0.187190 -1.565500 -0.240470 
0.868150 0.793810 -0.660300 
0.675680 1.419400 -0.893340 
0.624830 -1.259100 -0.747800 
-1.202300 0.512330 -0.934180 
-1.149000 -0.021067 -0.020202 
0.907240 0.526050 -0.866670 
-0.459060 -1.289300 -0.763270 
1.070000 -0.472980 -0.921270 
0.714850 -1.166100 -0.659020 
-0.739070 -0.797720 -0.930590 
-1.060900 -0.135270 -0.743460 
0.730630 -1.181200 -0.033609 
-1.220800 0.426160 -0.130330 
-0.719750 1.521800 -0.316180 
1.129700 -0.042767 -1.114100 
1.019000 0.271890 -1.014700 
-0.515550 1.649400 0.063737 
1.111300 -0.340420 -0.713070 
-0.429180 1.640500 -0.394430 
0.791900 1.103500 -1.495200 
-0.746130 1.453900 -0.971260 
0.690800 1.341900 -1.347600 
0.846080 0.995360 -0.676390 
0.396400 1.613200 -0.225690 
0.495240 -1.390600 -0.609430 
-1.008000 -0.318900 -0.327430 
0.448600 -1.422600 -0.718040 
-0.700940 1.527000 -0.103020 
1.065600 -0.407750 -1.300100 
-0.605690 -0.934590 -1.606800 
-0.306980 -1.460800 -1.200100 
-0.492600 -1.223400 -0.823440 
-0.845920 -0.621600 -0.933440 
0.272530 -1.566400 -0.824850 
-0.521360 -1.272900 -0.303330 
1.068900 -0.566000 -0.434400 
0.873220 1.032400 -0.250420 
0.106780 -1.634500 -0.524510 
-1.012800 1.189100 -0.326790 
1.185700 -0.153330 -0.047430 
0.844020 0.785470 -1.302500 
0.823890 1.063700 -1.026800 
0.729560 -1.180700 -0.415370 
1.149300 -0.232490 -0.082000 
-0.766950 -0.763870 -0.779230 
-0.556290 1.587800 -0.527760 
-0.948300 1.303900 -0.438960 
0.895920 0.593880 -0.692290 
-1.121800 0.013556 -0.379480 
0.499150 1.561800 -0.425210 
-0.592650 -1.048700 -0.822880 
1.048100 -0.633110 -0.516230 
-1.207100 0.629520 -0.232150 
-0.617110 -0.936200 -1.468500 
0.618880 1.452900 -1.074600 
0.302660 -1.497700 -1.181300 
0.905010 -0.912320 -0.856870 
-1.161000 0.145570 -0.440260 
-0.249380 -1.539300 -0.535240 
-0.759390 -0.707640 -1.394700 
-1.097300 -0.061451 -0.309420 
0.874310 0.728140 -0.719550 
1.161500 -0.101880 -0.119110 
-0.686690 -0.821700 -1.457600 
-0.345590 -1.465600 -0.548470 
0.810720 -1.163500 0.123040 
-1.131700 0.886570 -0.516450 
-0.461830 -1.332400 -0.323140 
0.784700 1.095400 -1.585000 
0.959440 -0.803130 -0.903230 
1.146100 -0.121280 -0.526800 
-0.519890 -1.112700 -1.390000 
-1.062600 1.059000 -0.187390 
0.571690 1.492200 -1.013800 
0.918890 0.452360 -1.134500 
0.801820 1.193900 -0.811310 
-0.528030 -1.152400 -0.914900 
-0.138650 -1.609700 -0.151160 
-0.342280 -1.386300 -1.568000 
-1.048000 -0.194460 -0.673150 
1.127400 0.082357 -0.424070 
1.104600 -0.391710 -0.596900 
1.158400 0.016138 -0.159500 
-0.496270 -1.204300 -0.981120 
0.847420 0.991020 -0.589820 
-1.162300 0.212250 -0.992570 
-1.136400 0.061479 -0.301060 
0.876650 -0.966940 -0.788500 
-0.486320 -1.248300 -0.418650 
-0.196420 -1.553200 -0.841050 
0.318220 1.640300 -0.533750 
-0.498040 -1.216900 -0.531940 
-1.219100 0.178170 0.009744 
0.244760 -1.638900 0.055699 
-0.795030 -0.723280 -0.692640 
0.054017 -1.568500 -1.306300 
-0.599130 1.546100 -0.797700 
-0.844800 -0.679160 -0.315490 
1.091500 -0.411780 -0.836990 
-0.866520 1.392700 -0.624610 
0.989370 0.343150 -0.706050 
0.134670 1.637000 -1.088600 
0.855640 0.970460 -0.326540 
-0.012266 -1.608100 -0.810820 
-1.082700 -0.112070 -0.389280 
0.239960 -1.609300 -0.033934 
-1.125000 0.681890 -1.356000 
0.450840 -1.435300 -0.540780 
0.843440 0.858760 -1.184000 
0.857010 0.865170 -0.836530 
-0.701640 -0.829650 -1.211400 
0.881870 0.661320 -0.778560 
-0.962770 1.242500 -0.822550 
-0.644350 -0.878260 -1.554800 
-0.495910 -1.190800 -1.119600 
1.023200 0.283050 -0.757640 
-1.142800 0.870680 -0.067035 
1.057600 0.230230 -0.690420 
0.167770 -1.627900 -0.621410 
1.054300 -0.603000 -0.138560 
1.130700 -0.251360 -0.521020 
0.402040 -1.452600 -0.831570 
-1.026600 -0.402180 -0.151600 
0.985190 -0.806790 -0.437850 
-1.057200 -0.235150 -0.150920 
1.038600 -0.584480 -0.896320 
0.256400 1.653400 -0.632100 
-0.996790 1.252600 -0.034191 
0.787130 1.251500 -0.650100 
-0.675690 -1.006100 -0.324230 
0.486040 1.614000 -0.139860 
0.559640 1.522500 -0.367270 
-0.287070 1.640900 -0.831540 
-0.723930 -0.838640 -0.705900 
0.806510 1.046800 -1.374200 
0.246740 1.611400 -1.192700 
1.015000 0.268010 -1.121500 
0.386730 -1.549700 0.161130 
0.778690 1.256200 -0.867020 
-0.980350 -0.436650 -0.228880 
-0.953390 1.173800 -1.261500 
-1.196900 0.509930 -1.022000 
-0.861630 -0.614530 -0.645050 
-0.949340 1.304600 -0.330910 
1.084400 -0.295850 -1.223900 
0.892650 -0.975750 -0.131990 
0.922440 -0.916310 -0.525230 
0.586140 -1.330200 0.059569 
0.591160 -1.324900 -0.239330 
-0.904240 -0.486880 -1.268100 
0.530790 -1.370400 -0.026670 
0.554480 -1.414500 0.176200 
0.859220 -1.031100 -0.235520 
0.103680 -1.635100 -0.404290 
1.113300 0.129880 -0.524070 
1.121700 -0.172420 -1.077200 
0.492610 -1.380400 -0.829130 
1.085600 -0.465000 -0.716560 
-0.297980 -1.548700 -0.166630 
-1.238100 0.692880 0.007351 
-1.157500 0.819420 -0.327050 
0.270320 -1.557100 -0.912030 
-0.492300 -1.179000 -1.270500 
-0.957010 -0.383870 -1.260200 
-0.900170 1.343100 -0.731620 
0.699090 1.353500 -1.229300 
-0.776250 1.481400 -0.429110 
-0.267610 1.723300 0.072895 
-0.776030 -0.732200 -0.986910 
-1.138600 0.686870 -1.261000 
0.899470 0.587980 -0.416890 
0.886010 -0.968600 -0.584940 
0.358390 -1.515700 -0.490940 
-0.304350 -1.502400 -0.630490 
-0.981480 1.246200 -0.259860 
-1.184600 0.568330 -1.086700 
1.108500 -0.380720 -0.507630 
-1.030200 -0.241770 -0.742980 
-1.069900 -0.154470 -0.177270 
0.853990 0.865200 -0.933850 
-0.704940 -0.869200 -0.585460 
1.051000 0.240910 -0.521870 
0.092106 -1.664900 -0.058512 
-1.191100 0.689740 -0.171200 
-0.909730 1.357200 -0.263580 
0.145870 1.685900 -0.324170 
-0.946280 -0.459520 -0.328230 
-0.929460 -0.487530 -0.432460 
-0.968830 -0.394780 -0.870160 
1.056600 0.216780 -0.940780 
0.460970 1.535800 -1.115300 
-1.145400 0.102140 -0.201900 
-1.081200 1.013200 -0.631820 
-0.671940 1.539300 -0.498870 
1.124300 -0.299750 -0.409800 
1.077300 0.282850 -0.229810 
1.031300 -0.577790 -1.162900 
-0.616040 -1.017500 -0.687430 
0.813660 1.162700 -0.328760 
0.916790 -0.913950 -0.649020 
-0.557820 -1.058200 -1.304800 
-0.775470 -0.770530 -0.377390 
-0.698590 1.485300 -0.905670 
-1.135100 0.883240 -0.388960 
1.128800 -0.168340 -0.975150 
-0.119740 -1.498300 -1.573800 
0.199460 1.671600 -0.556260 
-0.563750 -1.081800 -1.010400 
0.264370 -1.537900 -1.083700 
1.084300 0.150740 -1.108500 
0.111790 -1.617800 -0.899750 
-1.088600 1.000800 -0.254050 
-0.870450 1.402300 -0.424670 
0.988350 -0.806350 -0.342140 
-0.367180 1.652900 -0.458440 
-0.464330 -1.257400 -1.051200 
-1.215900 0.512810 -0.731810 
-0.979830 1.185500 -1.027800 
1.078600 0.079285 -1.578400 
0.543730 -1.363100 -0.383520 
0.870920 0.729410 -0.839090 
-0.606970 1.580100 -0.307760 
0.328670 1.633400 -0.274380 
-0.713400 -0.764790 -1.538400 
-0.970600 -0.411050 -0.470260 
0.829160 0.845860 -1.428200 
1.096500 -0.297550 -1.090400 
-1.167700 0.559390 -1.300100 
0.635290 1.464200 -0.781520 
1.063700 -0.411910 -1.205700 
0.774960 -1.132800 -0.109370 
-1.217800 0.380790 -0.435650 
-1.153400 0.692680 -1.134700 
-0.765510 1.458900 -0.795500 
1.113900 0.092230 -1.029300 
0.781820 -1.138100 0.032764 
0.170230 -1.604100 -0.964550 
-0.069593 -1.553300 -1.279500 
-0.440210 -1.407600 -0.246720 
0.943440 0.385760 -1.206100 
-0.141390 1.738400 0.049984 
-0.073035 -1.579400 -1.025900 
0.408450 1.546900 -1.354600 
0.901390 0.439010 -1.456900 
-1.197200 0.286760 -0.136530 
0.888500 0.494600 -1.693500 
-1.193400 0.261300 -0.439250 
-1.063700 1.070600 -0.435810 
-1.155800 0.823020 -0.454150 
1.140500 -0.032171 -0.906490 
-0.387630 -1.414400 -0.611690 
0.418530 1.583000 -0.858330 
-1.079700 -0.081121 -0.678440 
0.272500 -1.582200 -0.617690 
0.549410 1.534800 -0.519570 
0.300580 -1.565500 -0.217620 
0.018410 1.638500 -0.992160 
-1.079500 0.949000 -1.019800 
0.831260 0.692390 -1.702600 
0.774710 1.170800 -1.397300 
-1.103200 -0.040277 -0.446910 
-1.075500 -0.087410 -0.953850 
0.532220 1.535100 -0.768470 
-1.039300 -0.189500 -1.003100 
0.964830 0.316950 -1.403300 
0.369630 1.614200 -0.688100 
1.145500 0.007413 -0.526710 
-0.543060 -1.141700 -0.634250 
-0.740510 -0.782830 -1.060800 
-0.609630 -1.117400 -0.327940 
-0.042826 1.653300 -0.906270 
-0.918980 1.372300 -0.028112 
-0.797760 -0.651550 -1.338900 
0.891200 -0.972020 -0.463190 
-1.212000 0.364700 -0.226550 
-0.244430 -1.472300 -1.473400 
0.753680 1.145200 -1.663800 
0.952330 0.393160 -0.989840 
0.392940 -1.492500 -0.221120 
-1.223000 0.446450 -0.511360 
-0.189310 -1.563900 -0.410800 
-0.047395 1.685700 -0.618140 
-0.130930 -1.581400 -0.343970 
0.878770 0.839730 -0.323140 
-1.174900 0.761850 -0.515880 
-0.999190 1.191400 -0.734850 
-1.008100 1.192200 -0.530780 
-0.666200 1.525000 -0.729690 
-1.147300 0.826820 -0.707890 
1.069700 -0.415140 -1.081200 
-0.817420 -0.683290 -0.422910 
1.133900 -0.213300 -0.308520 
-0.430430 -1.336500 -0.853840 
0.745190 1.216900 -1.557600 
1.058100 0.223060 -0.811570 
0.932050 0.590860 -0.315490 
0.901900 0.901850 -0.250210 
-1.010700 1.191500 -0.443420 
1.118900 0.105890 -0.795530 
-1.065700 1.066100 -0.312060 
0.926160 0.368720 -1.681100 
-0.231180 1.651800 -0.757580 
1.090500 -0.105610 -1.507300 
-0.172190 1.667700 -0.679250 
-1.116400 0.820690 -1.121900 
0.814780 1.130400 -0.916910 
0.902550 0.711870 -0.321840 
0.253570 1.646900 -0.734610 
-1.218700 0.572400 -0.520710 
0.445120 -1.411000 -0.916330 
-0.838580 -0.597650 -1.242900 
-1.175800 0.189740 -0.348090 
1.108600 -0.173870 -1.217200 
-0.841130 -0.646050 -0.528570 
-0.424210 -1.356200 -0.673540 
-0.167970 1.693800 -0.320820 
0.777430 -1.134800 -0.200290 
0.852680 0.910890 -0.409310 
0.584940 -1.308800 -0.590900 
-0.835360 -0.654310 -0.734060 
0.893600 0.516060 -1.213400 
-0.979460 1.328600 0.016479 
0.857520 0.722570 -1.183000 
-0.130130 -1.531500 -1.372500 
0.838560 0.999420 -0.928100 
-0.941390 -0.460330 -0.815730 
-0.891300 1.337000 -0.835660 
-0.099473 1.697800 -0.248080 
0.885000 0.509110 -1.375100 
-0.196470 -1.546800 -0.941380 
-0.954610 1.239200 -0.935900 
-1.006300 -0.282910 -1.015500 
-1.176500 0.282340 -0.922780 
-1.180600 0.878190 0.022051 
-0.110420 1.686900 -0.552600 
0.722550 1.370600 -0.781210 
-0.978860 1.243000 -0.146320 
-0.860220 -0.609840 -0.449650 
0.016779 1.694600 -0.506890 
-0.766070 -0.767430 -0.528180 
-0.031223 1.696300 -0.175800 
-0.296770 1.641300 -0.701830 
-0.744920 -0.892050 -0.308490 
0.853600 0.793600 -1.109200 
-1.194900 0.698080 -0.449470 
-0.014394 -1.618100 -0.499110 
-0.494270 1.616200 -0.458400 
-1.172200 0.698800 -0.946210 
1.120800 -0.312640 -0.121680 
0.371120 -1.513400 0.068512 
-1.134600 1.003400 0.025318 
-1.092300 0.811370 -1.312700 
-0.350310 -1.404000 -1.317300 
-0.375950 -1.424300 -0.473490 
0.978070 0.421680 -0.322400 
-0.842900 -0.634080 -0.844060 
0.250970 1.638200 -0.841310 
-0.548500 -1.051200 -1.474200 
1.118400 0.113210 -0.701770 
0.866960 0.780320 -0.425040 
1.089300 0.178580 -0.622320 
-1.059300 0.942300 -1.209300 
0.983820 0.356690 -0.396070 
0.136270 1.671700 -0.723810 
-0.195800 -1.558100 -0.743970 
-1.042000 -0.185080 -0.818110 
-0.163780 1.652300 -0.880200 
-1.213800 0.391100 -0.619170 
-1.052400 1.199500 0.018949 
1.148500 -0.044826 -0.451620 
0.983050 0.351050 -0.492570 
-0.015882 1.742300 0.017115 
0.857870 0.563720 -1.602200 
0.248300 1.625500 -0.952540 
-0.397530 -1.374800 -1.054600 
-1.179400 0.284770 -0.824700 
0.848210 -1.020700 -0.659720 
-0.982640 -0.388570 -0.558200 
1.087700 -0.523290 -0.042974 
-0.249690 -1.486600 -1.311900 
-0.392110 1.686400 0.064359 
1.078400 -0.415840 -0.989020 
0.986410 -0.748760 -0.795070 
0.961390 -0.864200 -0.275780 
1.143700 -0.089154 -0.794170 
-1.186500 0.205780 -0.078531 
1.017300 0.195560 -1.651300 
0.885420 0.590090 -1.033200 
0.353680 1.574100 -1.130500 
1.074200 0.196030 -0.401240 
0.673220 -1.217200 -0.602200 
-1.201700 0.688370 -0.078127 
0.205310 -1.617100 -0.226760 
-0.623010 -0.938340 -1.381600 
-1.122400 -0.140900 -0.032805 
-1.192200 0.383260 -1.156300 
-0.846050 -0.611250 -1.029400 
-0.941430 -0.443460 -0.962500 
1.011700 -0.736980 -0.133520 
0.022590 1.699900 -0.327800 
0.831380 0.995630 -1.104000 
-0.941540 1.299400 -0.655260 
0.014870 1.682900 -0.689170 
0.824710 1.123100 -0.606270 
1.072700 -0.555580 -0.323800 
-0.195930 -1.538900 -1.045400 
0.096485 1.696200 -0.125280 
-0.810030 -0.662310 -1.111700 
0.482220 1.566000 -0.686820 
0.932200 0.464510 -0.688240 
0.170360 -1.618400 -0.806920 
-0.596580 -1.035000 -0.912270 
-0.909910 1.352400 -0.523720 
-0.173870 1.685400 -0.491910 
-1.112900 0.942460 -0.321710 
-1.205700 0.328660 -0.538790 
0.638190 -1.275600 -0.394310 
-0.925810 -0.436900 -1.346100 
-1.053300 1.075100 -0.713110 
-0.544210 -1.154200 -0.416640 
-0.014955 -1.616900 -0.409690 
-0.948580 1.305100 -0.085585 
-1.126100 0.823830 -1.026300 
-0.630920 -0.945720 -1.220100 
-0.552690 1.599900 -0.383100 
0.203540 1.675700 -0.414760 
0.576890 1.497900 -0.915690 
-1.134400 0.877730 -0.260840 
-0.395980 1.653400 -0.022852 
0.608850 1.491400 -0.431750 
0.114170 -1.563600 -1.411200 
-0.634000 -0.957180 -1.073800 
-0.668930 1.547800 -0.389260 
-0.308960 -1.489400 -0.849680 
-0.587490 1.583300 -0.126210 
-0.074233 -1.597500 -0.727170 
-1.083000 1.060100 -0.032082 
1.005700 -0.750290 -0.535790 
-0.958860 -0.536470 -0.209140 
-0.701000 -0.864520 -0.874810 
0.834990 1.040700 -0.393940 
-0.444400 -1.220000 -1.568800 
-1.021300 -0.293180 -0.427590 
1.048300 0.260370 -0.317660 
-0.706370 -0.885740 -0.395930 
0.360430 -1.506000 -0.634670 
-0.776840 1.475100 -0.522320 
-0.295430 -1.507400 -0.455660 
1.087100 0.080753 -1.492300 
0.842980 0.931020 -1.035000 
-0.993220 -0.289710 -1.238500 
-0.884830 1.443700 0.025875 
-0.157270 1.690700 -0.167230 
0.724860 1.389000 -0.253610 
1.100300 -0.431600 -0.396540 
0.966660 -0.944110 0.094246 
1.038300 -0.667250 -0.068088 
0.994840 0.255490 -1.482300 
0.572570 1.518000 -0.270680 
-1.198600 0.396930 -0.884580 
0.827360 0.917880 -1.341800 
-0.900140 1.282600 -1.171500 
-1.056400 -0.187580 -0.320320 
-0.303080 1.661300 -0.526580 
-0.430360 -1.339600 -0.418360 
0.836340 1.050400 -0.500450 
0.797090 1.116300 -1.283900 
0.492160 -1.411600 -0.240010 
-1.048100 1.008500 -1.101700 
-1.196900 0.637270 -0.806400 
-0.448490 -1.311800 -0.595240 
-0.287900 -1.515900 -0.263760 
0.987780 0.347710 -0.595680 
1.127100 -0.264460 -0.613140 
-0.015754 -1.611100 -0.292540 
0.841700 0.999220 -0.829830 
0.785910 1.280600 -0.267110 
0.955850 0.397390 -0.860150 
-0.362290 1.660500 -0.334440 
-0.394140 -1.358600 -1.238700 
0.664910 1.495000 -0.173710 
0.580920 -1.300700 -0.814270 
0.766600 1.301200 -0.500120 
0.220380 -1.614400 -0.530320 
-1.195000 0.694520 -0.295260 
0.198090 -1.618700 -0.135210 
0.505330 1.485800 -1.415100 
0.709580 -1.254400 0.120610 
0.290820 -1.566900 -0.122100 
-1.184400 0.501550 -1.228600 
0.470320 1.555400 -0.920920 
0.730050 1.296000 -1.286400 
-1.263600 0.414200 -0.002152 
-0.487140 1.625900 -0.312470 
-1.010200 1.130400 -0.967480 
0.435450 -1.455800 -0.137620 
0.822140 1.127200 -0.694630 
0.165220 1.714900 -0.064094 
-0.662790 -0.883540 -1.294800 
-0.399600 -1.396200 -0.357290 
0.896760 0.434690 -1.546400 
1.081000 -0.510130 -0.515800 
0.700400 1.404900 -0.455420 
0.846250 1.160400 -0.235260 
-0.883840 1.333100 -0.940230 
0.474360 -1.417900 0.030036 
-0.913770 -0.561190 -0.278870 
0.988150 -0.802830 -0.194830 
0.307290 -1.563100 -0.311420 
-1.127500 0.888890 -0.643740 
1.123800 -0.264500 -0.229560 
0.864050 0.727200 -1.036800 
-1.002300 1.128700 -1.088000 
0.776040 -1.133000 -0.351650 
-0.419340 1.647000 -0.246390 
-0.693090 -0.823100 -1.371600 
0.873210 0.580630 -1.295900 
-0.394540 -1.398200 -0.790210 
-1.153000 0.167330 -0.791230 
-0.193820 -1.525500 -1.190500 
-1.224100 0.437420 -0.321080 
-0.071513 -1.565600 -1.168200 
1.141800 -0.173740 -0.448260 
-0.377410 -1.484100 -0.203930 
-0.906810 -0.529860 -0.756520 
-1.066000 -0.146920 -0.586550 
-1.004800 -0.354190 -0.233180 
0.261100 -1.525500 -1.252700 
-1.066200 -0.163470 -0.460350 
0.110120 -1.628900 -0.709060 
0.793830 1.192300 -1.011900 
0.040411 1.712500 -0.062415 
0.057556 -1.557400 -1.493200 
-0.107950 1.695800 -0.423050 
-0.431650 -1.310800 -1.124600 
0.449350 -1.442000 -0.431880 
1.106300 0.086689 -1.173900 
-0.822150 1.449300 -0.305800 
1.076000 -0.519490 -0.628860 
-0.929340 -0.494830 -0.634010 
0.686110 -1.231100 -0.337480 
0.384330 1.614000 -0.363300 
0.588460 -1.325700 -0.134460 
1.099500 0.155450 -0.303600 
-1.020300 -0.242120 -1.132400 
0.051296 -1.596200 -1.093200 
-1.204700 0.307530 -0.313070 
0.489170 1.567300 -0.578640 
0.788830 1.188400 -1.120200 
-0.819140 1.428000 -0.691430 
1.098200 0.083513 -1.288500 
-1.220700 0.568120 -0.316170 
1.042300 -0.526350 -1.079400 
0.857730 -1.028700 -0.365170 
0.749270 1.224600 -1.469200 
-1.148300 0.157520 -0.925530 
0.393950 -1.439000 -1.010200 
-1.221900 0.510630 -0.589150 
-0.492940 1.602100 -0.596430 
0.999750 -0.690980 -1.048700 
1.143800 -0.134700 -0.619680 
-1.189900 0.700310 -0.634740 
1.130900 0.187180 -0.180500 
1.117900 0.099460 -0.892960 
0.211660 -1.619000 -0.318020 
0.589640 1.502600 -0.703250 
0.862960 0.571830 -1.465300 
-1.186300 0.328280 -1.074700 
-1.141800 0.097587 -0.528710 
0.851350 -1.023000 -0.527910 
-0.875100 -0.543840 -1.184600 
0.790170 1.020700 -1.687000 
0.937270 0.381290 -1.325200 
0.168900 -1.587600 -1.092900 
0.808710 -1.072700 -0.591520 
0.874860 -1.045500 0.064299 
-0.239230 -1.536500 -0.334110 
0.815310 -1.078700 -0.437920 
-0.769310 1.537300 0.047739 
0.564080 1.479800 -1.152200 
-0.635220 -0.983730 -0.590550 
-1.084300 -0.095391 -0.509840 
-0.686090 -0.896690 -0.498530 
-1.261800 0.561130 -0.001617 
0.980200 -0.747450 -0.972630 
0.092864 -1.637300 -0.140100 
1.106100 -0.597570 0.048120 
1.121100 -0.045358 -1.223500 
-0.893580 -0.493050 -1.426900 
0.600740 1.420000 -1.414600 
-0.884060 -0.575980 -0.558810 
0.100700 -1.631600 -0.315370 
-1.241300 0.491940 -0.053833 
-0.505960 -1.104200 -1.612600 
-1.198500 0.338580 -0.715240 
0.763900 1.246000 -1.184200 
-0.272620 1.680200 -0.033433 
0.422270 1.588300 -0.771760 
-0.301050 1.670800 -0.403980 
-0.354870 1.625400 -0.763680 
-1.183400 0.232280 -0.223190 
-0.943040 1.236000 -1.106600 
1.045000 0.206020 -1.228100 
-0.482110 -1.167000 -1.478200 
0.217370 -1.617600 -0.439380 
0.867920 0.728980 -0.934950 
0.895850 0.592140 -0.585420 
0.686810 -1.231800 0.021654 
0.817060 1.058300 -1.173800 
-0.803590 1.417700 -0.879950 
-1.075300 -0.079801 -0.858650 
1.127100 0.115860 -0.229630 
-0.700180 1.545300 -0.006895 
0.722090 1.284900 -1.409100 
-0.463430 -1.271100 -0.917220 
-1.217400 0.562370 -0.140340 
0.931250 0.467000 -0.436410 
-0.905180 1.356200 -0.158500 
0.910480 0.527840 -0.747280 
0.047528 -1.626800 -0.605490 
1.031500 -0.815200 0.079585 
-1.196300 0.394040 -0.992870 
-0.107780 1.672600 -0.745560 
0.346310 -1.468200 -1.091100 
-0.083778 1.706100 -0.047850 
-0.417360 -1.282300 -1.481800 
0.853530 0.919280 -0.513420 
0.733450 1.363500 -0.574540 
-1.119700 0.041703 -0.622880 
0.652890 1.457900 -0.524140 
0.625970 -1.260500 -0.661000 
1.136000 -0.038357 -1.008600 
0.728800 1.367700 -0.660670 
-0.838390 1.376500 -1.021400 
0.542420 -1.355400 -0.530720 
1.032900 -0.688630 -0.411860 
0.806110 -1.071300 -0.728830 
0.971750 -0.866690 0.018008 
-0.992840 -0.348280 -0.778440 
0.168470 -1.561000 -1.323200 
-1.153800 0.059080 -0.051955 
-1.032200 1.002100 -1.289100 
1.037600 0.202030 -1.347400 
-0.237700 1.665300 -0.599690 
-1.106700 0.950110 -0.576110 
-1.031700 -0.259690 -0.600470 
1.134300 0.038789 -0.321060 
-1.190000 0.278900 -0.631270 
0.682090 1.324500 -1.559200 
0.928880 -0.920680 -0.190300 
0.866520 0.786950 -0.525370 
0.265360 1.657000 -0.344830 
-0.342960 -1.389400 -1.481400 
-0.638830 -0.999930 -0.405210 
0.865370 0.796780 -0.776840 
-0.356150 -1.421800 -1.126900 
-1.087700 0.993960 -0.126240 
1.072100 -0.542230 -0.212180 
-0.309470 -1.474000 -1.053800 
-1.121500 0.889730 -0.771030 
-1.041800 1.119900 -0.092248 
0.823460 0.839980 -1.516200 
0.815850 -1.082000 -0.045175 
-0.770550 -0.712560 -1.233800 
0.015416 1.679300 -0.782300 
-0.881870 -0.577300 -0.371940 
0.590210 -1.317100 -0.458790 
0.957590 0.400370 -0.769470 
-0.386720 -1.344300 -1.398100 
0.456890 1.524600 -1.219800 
1.023300 -0.694510 -0.615290 
-1.159300 0.163410 -0.592560 
0.770100 -1.127300 -0.492610 
1.065200 -0.528010 -0.798020 
-0.538250 1.607200 -0.208920 
-0.765230 1.489600 -0.215230 
0.465810 1.546900 -1.015900 
1.139100 -0.130770 -0.236370 
-0.775290 1.468800 -0.614510 
-1.134000 0.101080 -0.849820 
-1.110600 0.946990 -0.449150 
-1.010300 -0.286570 -0.842570 
0.875440 0.724760 -0.608410 
-0.194510 -1.563000 -0.619050 
0.823440 0.988690 -1.257100 
-0.964400 1.180200 -1.174000 
1.103200 -0.236370 -1.154600 
0.353600 1.569900 -1.231400 
0.670290 1.416100 -0.992950 
-1.094600 0.952020 -0.829670 
1.000300 -0.692760 -0.908320 
-0.815580 -0.777170 -0.283980 
0.667240 1.437100 -0.317300 
1.168100 -0.293860 -0.011889 
1.015800 -0.637440 -0.980630 
-1.005000 1.192500 -0.618190 
-0.578430 -1.082100 -0.460600 
-0.776860 -0.652610 -1.553900 
0.896200 -0.976530 -0.291150 
-0.306660 -1.497300 -0.722200 
0.610400 1.439500 -1.219200 
-1.110700 -0.011821 -0.240700 
1.065600 0.141780 -1.420800 
0.087533 1.692000 -0.258430 
1.127100 -0.374330 -0.047531 
-0.656100 -0.948550 -0.738110 
0.604730 1.417200 -1.540400 
-0.364910 1.635600 -0.615470 
-0.240840 -1.458800 -1.600500 
-0.022804 -1.639900 -0.125290 
0.134150 1.644900 -0.979840 
-1.062000 1.012200 -0.945250 
0.208880 1.669800 -0.255550 
0.926760 0.458810 -0.927210 
1.132400 -0.213250 -0.727380 
-1.156700 0.168300 -0.680410 
1.104000 0.018510 -1.435000 
-0.487030 1.593400 -0.689850 
-0.940170 -0.437800 -1.058500 
1.087400 -0.168520 -1.436300 
-0.074364 -1.600700 -0.633020 
-1.112800 0.033319 -0.901740 
-1.227700 0.262710 -0.015762 
0.957410 -0.860650 -0.106390 
0.892840 -0.976620 -0.037081 
1.087000 -0.232930 -1.329000 
-0.819950 -0.684140 -0.609350 
1.116500 -0.287410 -0.831880 
1.134200 -0.161880 -0.875500 
0.882560 0.653200 -0.484110 
0.837830 0.704760 -1.515600 
1.108800 -0.110110 -1.315400 
0.635120 -1.277200 -0.052675 
1.145800 -0.004451 -0.617950 
-0.477870 1.591500 -0.778930 
-0.597820 -1.009600 -1.148000 
-0.612080 1.553100 -0.664130 
1.028200 -0.639870 -0.802880 
-0.454710 -1.230200 -1.394900 
-0.006452 -1.556800 -1.372900 
-0.989720 -0.368490 -0.651900 
-0.483260 -1.248800 -0.653320 
0.833140 1.064100 -0.761840 
-0.075452 -1.601400 -0.218720 
0.077610 1.687300 -0.576270 
-1.220700 0.570890 -0.432930 
1.022200 0.277270 -0.881530 
-1.097900 -0.019568 -0.735720 
1.144700 -0.089512 -0.344720 
0.355450 -1.483200 -0.901470 
-0.671610 1.532500 -0.584440 
-1.016800 1.132200 -0.877060 
-1.101000 -0.026604 -0.567830 
-1.210400 0.513280 -0.818090 
-1.152200 0.825460 -0.580990 
-0.912230 -0.508450 -0.897600 
1.055300 -0.582710 -0.707760 
1.144800 -0.018358 -0.743230 
0.359380 -1.497000 -0.744980 
-0.986790 -0.334690 -1.137700 
-0.617700 -1.010500 -0.502940 
1.014300 -0.745030 -0.287820 
-1.221500 0.499100 -0.221930 
0.814160 0.976680 -1.466100 
0.861920 0.858210 -0.600560 
0.742280 1.339000 -0.334200 
0.976890 -0.805800 -0.600500 
0.783530 1.254600 -0.740340 
-0.772330 -0.748830 -0.863920 
-0.294380 1.675900 -0.277060 
-0.309750 -1.482300 -0.949630 
-0.331980 -1.471400 -0.382660 
1.026400 0.196290 -1.561000 
0.311530 -1.558800 -0.403480 
-1.177700 0.759470 -0.390370 
-0.300190 -1.442400 -1.396000 
0.819550 -1.083100 -0.292550 
0.939050 -0.859110 -0.781000 
0.826320 0.766470 -1.608500 
1.141400 -0.444360 0.020235 
1.097800 -0.355270 -0.930220 
-1.109700 0.935110 -0.193310 
0.685730 -1.231400 -0.128460 
0.445840 -1.448300 -0.317910 
-0.642890 1.609000 0.070689 
-0.254140 -1.504300 -1.122700 
0.273420 -1.574200 -0.736640 
1.139300 -0.179120 -0.157850 
0.437880 1.594100 -0.480380 
0.733340 -1.184400 -0.265910 
1.109800 -0.046028 -1.376200 
0.356600 1.583900 -1.034200 
-0.667880 -0.913830 -0.938990 
0.970580 -0.804570 -0.690340 
0.931420 0.465720 -0.581830 
0.246710 1.615700 -1.039800 
0.953640 0.309990 -1.579000 
-0.873470 1.332800 -1.095900 
1.036200 -0.738570 0.022855 
0.810810 0.970810 -1.554900 
1.101400 -0.408650 -0.250820 
-0.824100 -0.596920 -1.444200 
0.929210 -0.920390 -0.350850 
0.809270 1.177800 -0.487290 
-0.432330 -1.323600 -0.984370 
-1.214200 0.574140 -0.667700 
0.141040 1.685800 -0.484330 
-0.397110 -1.386900 -0.918180 
0.326080 -1.538000 -0.023373 
-0.815210 1.466100 -0.033077 
-1.104900 0.816460 -1.217400 
-0.134170 -1.554900 -1.108300 
-0.939270 -0.435930 -1.160900 
-1.231600 0.344690 -0.045027 
-1.123400 0.029500 -0.157010 
0.360010 1.594600 -0.942340 
0.267170 -1.546900 -0.998200 
-1.018800 1.067800 -1.174600 
-0.560090 -1.108300 -0.542500 
-0.350230 1.662200 -0.183790 
-1.174900 0.753850 -0.232970 
0.749300 1.315000 -0.922240 
0.218230 -1.557300 -1.169800 
-0.280820 1.673300 -0.123630 
-0.527690 -1.124900 -1.190500 
0.860410 0.862910 -0.714590 
0.135300 1.665800 -0.824300 
0.633370 -1.269100 -0.524280 
0.481800 -1.437900 0.122690 
0.096936 -1.628500 -0.227150 
-0.426180 -1.294800 -1.315400 
-0.413490 -1.370900 -0.535370 
-0.462330 -1.244700 -1.196200 
-0.695780 -0.879580 -0.789300 
-0.704740 -0.847690 -0.999270 
-0.749150 -0.799130 -0.626560 
-1.028700 -0.275400 -0.511890 
-1.028100 -0.270920 -0.256060 
-1.109700 -0.048070 -0.103850 
-1.196000 0.446580 -1.094900 
-1.101600 0.951890 -0.702890 
-1.089100 1.006900 -0.380550 
-1.047900 1.074700 -0.805510 
-0.861260 1.409900 -0.095263 
0.815880 0.900710 -1.605000 
-0.469110 1.627900 -0.136840 
0.019215 1.699000 -0.417120 
0.075109 1.665400 -0.888670 
0.152350 1.682600 -0.189950 
0.275160 1.658300 -0.187840 
-0.368240 -1.449000 -0.293790 
0.450350 1.583000 -0.288010 
0.534390 1.565100 -0.191980 
0.645020 1.462700 -0.634790 
0.684250 1.330400 -1.472700 
0.789660 1.230500 -0.399960 
0.909890 0.526960 -0.510030 
-1.022900 -0.232930 -0.927040 
1.036000 -0.678410 -0.229170 
1.114200 -0.353480 -0.329670 
0.754460 1.234400 -1.342300 
1.105600 -0.296040 -0.992300 
1.015600 -0.695020 -0.714690 
0.851770 0.931530 -0.771210 
-1.177800 0.212010 -0.507800 
-0.918250 1.287100 -1.009600 
