0.528780 0.557880 -0.435130 
0.489160 0.346530 -0.553550 
-0.362350 1.167500 -0.320920 
-0.588390 0.711710 -0.952890 
-0.888590 -0.269640 -0.127300 
-0.650400 -0.465270 -0.304500 
-0.774830 0.810460 -0.105200 
0.078335 -1.307800 -0.769260 
-0.956150 1.305200 0.023717 
0.163080 1.264400 -1.288400 
-0.311840 -0.596670 -0.598370 
-0.104910 -0.822610 -0.745060 
0.601200 -0.181240 -0.623780 
-0.283370 -0.472870 -1.117000 
0.651720 -0.168570 -1.256500 
0.451030 0.671980 -0.485210 
0.672040 -0.826510 -0.833500 
-0.646320 0.811540 -1.376100 
-0.009654 1.333300 -0.314440 
0.196040 -1.233600 0.030686 
-0.141240 -1.621400 -0.127160 
-0.291110 -0.458750 -1.282200 
0.147990 -1.037800 -0.467140 
-0.572800 -0.111900 -0.916550 
-1.261800 0.561130 -0.001617 
-0.638070 -0.124150 -1.065300 
-0.074860 -0.790900 -0.956340 
0.094757 1.432400 -0.187860 
-1.238100 0.692880 0.007351 
0.841590 -1.020400 0.113280 
-0.155810 -0.688060 -0.824200 
-0.575740 0.762980 -0.795930 
-0.706760 1.575800 0.059806 
0.319130 1.211700 -0.359340 
-0.609610 0.658280 -1.153900 
-0.580260 -0.251120 -1.381100 
-0.196080 -1.289400 -0.298700 
-0.135930 -1.091900 -1.267500 
-0.081681 -1.200000 -0.677820 
-0.091498 1.243400 -0.468520 
0.037444 1.278200 -0.905930 
0.146410 -1.663300 -0.027070 
-1.109600 1.067900 0.024118 
-0.310150 -0.430320 -0.987460 
-1.087000 0.477170 -0.015232 
-1.103100 -0.200970 -0.056392 
-0.467980 -1.365300 -0.267640 
-0.602560 0.815460 -1.228500 
0.828190 0.751290 -0.271700 
0.071339 -1.368500 -0.580510 
0.148750 -1.414500 0.007314 
0.057876 -1.239700 -1.568900 
-0.198580 -1.176300 -0.747820 
-0.455210 -0.507210 -0.465120 
0.240760 -1.013900 -0.635000 
-0.450050 -0.281580 -0.746550 
-0.079645 -0.763690 -1.562600 
-0.139200 -0.919610 -0.602910 
0.207750 -1.354600 -0.567220 
-0.934840 0.927440 0.009986 
-0.561670 -0.089490 -0.749740 
0.383940 0.286190 -0.956710 
0.101990 -1.140100 -0.557120 
-0.213030 -0.662550 -0.705540 
0.192770 1.214700 -0.416500 
0.325930 1.183100 -0.494930 
-0.775650 0.347480 -0.302400 
0.358280 0.726100 -0.624580 
0.297730 0.863770 -0.790890 
0.439710 -1.508500 0.176300 
-0.615740 1.214000 -0.788790 
-0.660350 1.198200 -1.196400 
0.488460 1.130200 -0.960350 
-0.796890 0.546480 -0.775900 
-0.643110 -0.009609 -0.608150 
0.129350 -1.131500 -0.692450 
-0.371850 -0.357610 -1.519000 
0.189720 -1.303600 -0.426030 
-0.141390 1.738400 0.049984 
-0.826710 0.492060 -0.932880 
0.334040 0.565530 -1.414400 
-0.070329 -0.943340 -0.804030 
-0.030801 -0.997480 -1.278000 
0.645620 -0.156270 -1.105200 
0.340730 0.427910 -0.962520 
-0.523100 1.361200 -0.735860 
-0.557530 -0.132080 -0.577410 
-0.214700 -0.753830 -0.598990 
-0.395760 -1.194700 -0.295570 
-0.117260 -0.715980 -1.126300 
0.482600 1.132300 -1.121500 
0.389160 -0.883370 -0.187020 
-0.601410 -0.996600 -0.325860 
0.841590 -0.638330 0.041035 
-0.195980 -1.207800 -0.609280 
-0.806010 0.556020 -0.627550 
-0.297980 -1.548700 -0.166630 
0.931670 -0.531520 0.038834 
-0.160570 -1.050500 -0.796720 
-0.446890 -0.279460 -1.004200 
-0.651230 -0.318490 -0.315140 
0.493160 0.221730 -1.572800 
0.015296 1.444500 -0.053091 
0.554730 -0.447640 -0.806910 
-0.654070 0.587790 -0.973570 
0.848190 -0.374980 -0.038589 
-0.900800 1.180500 0.019041 
0.417490 1.187900 -1.538900 
0.166370 1.340800 -0.369670 
0.545940 1.185400 -0.558930 
0.212710 -1.377500 -0.957080 
-0.374970 1.305400 -0.808160 
0.312060 0.567760 -1.212000 
0.437660 0.534150 -0.555280 
-0.764530 -0.089211 -1.152600 
-0.432150 -0.646660 -0.429090 
-0.439580 -1.037300 -0.338180 
-0.155550 -1.228100 -1.627100 
-0.553790 1.062100 -0.805160 
-0.367160 1.164000 -0.460780 
-0.601610 0.820670 -0.361310 
0.471020 1.129600 -1.290700 
-0.471000 1.189600 -0.237630 
-0.570310 1.303200 -0.601860 
0.265740 -1.292600 -1.375000 
0.570910 0.094590 -0.698220 
-0.252810 1.270000 -0.130370 
1.031500 -0.815200 0.079585 
0.694500 -0.768710 0.002746 
-1.080800 0.658670 0.009059 
-0.423240 1.239200 -0.107940 
-0.960890 -0.161820 -0.056994 
-0.655820 1.198800 -0.641280 
0.475790 0.184060 -0.736750 
0.323920 -0.888980 -0.341510 
0.446610 1.071200 -0.843310 
-0.633590 -0.605640 -0.304900 
0.185380 -1.121400 -0.075849 
-0.734990 0.197720 -0.261800 
0.220220 -1.349400 -0.704880 
-1.158100 0.940140 0.024735 
0.439020 -0.930770 -0.050683 
-0.882270 0.180510 -0.981460 
-0.716580 1.431200 0.054162 
0.290660 1.272100 -1.479500 
-0.283110 -1.189600 -0.383560 
-0.035011 -1.197400 -0.942190 
-0.604280 -0.204220 -0.398290 
0.247800 -0.999430 -0.165540 
-0.416290 -0.788860 -0.400850 
-0.884830 1.443700 0.025875 
-0.579650 0.846490 -0.943460 
-0.776160 -0.002789 -0.913990 
0.170310 -1.247000 -1.468900 
0.213990 -1.084700 -0.814130 
0.894430 -0.031115 -0.151080 
-0.576640 1.047500 -0.590050 
0.711900 -0.102080 -0.926020 
-0.723040 0.017804 -0.239370 
0.356810 0.435810 -0.827590 
0.493710 0.574570 -1.728000 
-1.055600 -0.333450 -0.118190 
0.342570 0.420790 -1.254800 
0.326130 1.003100 -0.967270 
-0.798040 1.328700 0.014064 
-0.022469 -0.989430 -1.412800 
-0.824730 0.301440 -0.930580 
0.380350 0.567010 -1.564900 
0.309620 0.570040 -1.063700 
-0.621380 0.955080 -1.205500 
0.149410 -1.074100 -0.218060 
0.279570 -1.333000 0.129750 
0.390670 -0.867490 -0.463960 
0.841410 0.354090 -0.286800 
0.321470 0.711240 -1.413300 
0.587930 -0.835250 -0.046278 
-0.815580 -0.777170 -0.283980 
0.743350 0.436530 -0.326580 
0.992070 0.084350 -0.137390 
-0.830690 0.406810 -0.762020 
0.362140 0.419900 -1.406700 
-0.806330 0.945460 -0.044855 
-0.012184 1.713800 0.020660 
-0.634720 0.697840 -0.416920 
0.666700 -1.313800 0.155850 
-0.071962 -1.231900 -1.095300 
-0.742780 0.357510 -0.437410 
0.565010 1.000000 -0.296060 
-0.671420 0.777470 -0.246790 
-0.364800 -1.430100 -0.204520 
-0.734020 0.295390 -0.755670 
-0.178380 1.581700 0.058330 
0.806280 -0.135720 -0.161830 
0.462010 1.329300 -0.282370 
0.047309 -1.206900 -1.368700 
-0.024831 -0.899830 -1.577300 
-0.231330 -0.567170 -0.866050 
0.714660 -0.108830 -0.553130 
-1.219100 0.178170 0.009744 
-1.056800 0.839470 0.026552 
-0.088213 1.358100 -0.082838 
0.673330 -0.471310 -0.166560 
0.237360 -1.234300 -0.947780 
0.230080 -1.339200 -1.102800 
-0.614180 1.012400 -0.304140 
0.371940 0.710670 -1.561900 
0.088469 -1.171700 -0.297960 
0.401250 1.029200 -1.362200 
0.545220 -0.650500 -0.722350 
-0.256020 1.200300 -0.617180 
-0.041585 -0.932950 -0.969600 
-0.914540 0.366010 -0.123570 
0.991970 -0.077034 -0.071584 
0.610080 1.538800 -0.164120 
-0.761880 -0.334100 -0.221350 
-0.661450 0.901810 -0.198370 
0.753690 0.009150 -1.630300 
-0.583560 1.267000 -0.129540 
0.290780 -1.615700 0.098121 
0.518760 0.872850 -0.358380 
0.350600 1.227400 -1.351200 
0.337030 0.423530 -1.105900 
0.472220 0.141070 -1.370000 
-0.584240 1.024300 -0.950470 
-0.138810 -1.247200 -1.224800 
-0.732990 0.358160 -0.575520 
1.020800 0.379060 -0.270770 
0.020815 -1.524300 -0.144640 
0.991030 -0.403120 0.021054 
0.699830 0.073510 -0.593080 
0.019335 -1.371200 -0.303620 
1.178400 -0.222020 -0.029220 
-0.682290 1.029000 -0.162120 
-0.244330 -1.369600 -0.200980 
0.388770 1.040700 -1.094600 
0.899390 0.167220 -0.213540 
0.693710 0.053232 -0.868660 
-0.670190 1.142500 -0.518400 
0.680270 -0.592270 -1.095800 
0.681850 -0.248690 -0.252160 
1.097700 0.188610 -0.176350 
0.296940 0.942170 -1.106500 
0.602660 -0.209710 -0.470560 
0.404510 1.075600 -1.619800 
0.744320 -0.063601 -1.053800 
-0.454590 -0.305490 -1.383100 
-1.254000 0.335860 0.001576 
0.095381 -1.207200 -1.231000 
-0.626520 0.640890 -0.835400 
-0.514910 -0.889890 -0.342440 
-0.599190 0.688950 -0.673940 
0.628030 -0.166830 -0.773960 
-0.739350 1.259000 -0.106380 
0.472090 0.718870 -1.685400 
0.652110 0.834820 -0.287780 
0.085464 1.275800 -1.174600 
-0.422620 1.246100 -0.644620 
0.644980 -0.704420 -1.002400 
-0.873770 0.103610 -0.870860 
0.448160 0.801170 -0.447210 
-0.698460 0.952020 -1.345400 
0.553190 0.439670 -1.705300 
0.788740 0.619200 -0.296740 
0.455750 0.159700 -0.906460 
0.303990 1.283700 -0.246110 
0.405340 0.276350 -1.391300 
-0.770770 -0.646480 -0.262820 
-0.382240 -0.343590 -0.891020 
0.655960 0.037104 -1.377900 
0.202830 1.149900 -0.543550 
0.574770 -0.684070 -0.863350 
-0.993890 -0.470280 -0.182210 
-0.204520 -0.579490 -1.373800 
0.167540 1.724300 -0.044996 
0.543710 -0.811320 -0.182240 
0.358320 0.584470 -0.704840 
0.291240 1.693200 -0.087821 
0.741060 0.015697 -1.495400 
0.621960 -0.418040 -0.292730 
-0.571340 1.003000 -0.454330 
0.190750 1.119100 -0.921680 
-0.790100 -0.501150 -0.235420 
-0.312040 -0.766000 -0.485000 
1.141400 -0.444360 0.020235 
0.226950 1.553200 -0.078601 
-0.962270 0.525260 -0.109420 
-0.303770 -0.464980 -0.819480 
0.408150 0.951320 -1.701700 
0.440710 1.276100 -0.479290 
0.577950 -0.528800 -0.932750 
-0.869120 -0.058590 -0.073465 
0.398150 -1.067500 -0.824200 
-0.937750 0.267240 -1.085600 
-0.827810 0.651380 -0.154790 
0.616510 1.125600 -0.255560 
-0.637830 1.061500 -1.115200 
-0.880030 0.415700 -0.243180 
-0.332520 1.404800 0.021966 
0.636390 -0.940750 0.066006 
-0.649970 0.639580 -0.550410 
0.571880 0.049126 -1.255500 
0.713170 1.447400 -0.181950 
0.058369 1.338100 -0.786710 
0.918180 0.473650 -0.293520 
0.753450 -0.103290 -0.289830 
-0.054423 1.439400 -0.964500 
-0.697990 0.220770 -0.469500 
-0.553920 1.324500 0.001373 
0.561670 -0.837210 -0.475870 
-0.154540 -0.641570 -1.556700 
0.560560 0.070898 -0.864180 
-0.071455 1.448300 -0.830630 
-0.744920 -0.892050 -0.308490 
0.857710 1.160700 -0.214480 
0.745590 -0.075652 -1.211300 
-0.049400 1.537500 0.021156 
0.901900 0.901850 -0.250210 
1.189000 -0.088168 -0.066624 
0.930550 0.650920 -0.292480 
0.506250 1.186900 -0.802360 
-0.190640 -1.136400 -1.145900 
0.718100 -0.130800 -1.392100 
0.374230 0.860300 -0.547410 
-0.789200 1.118000 -0.052809 
0.713970 -0.495430 -1.228800 
1.145100 0.033663 -0.101970 
0.307390 1.443300 -0.141880 
0.596260 0.328330 -0.432180 
0.058569 -1.384600 -0.442410 
-0.165000 -0.647530 -1.249800 
-0.767670 -0.141690 -0.173070 
-0.808250 0.283610 -0.177520 
-0.081309 1.279300 -0.210630 
0.552280 0.163930 -0.579790 
-0.165690 -1.220500 -1.360600 
-1.176400 0.033116 0.006078 
0.742450 0.271780 -0.321940 
-0.592270 1.280900 -1.083800 
0.113140 1.167800 -0.752510 
-0.513310 1.220600 -0.381580 
0.106750 -1.209900 -0.144440 
0.536720 -0.814700 -0.321420 
0.562180 -0.901420 -0.613220 
0.767560 1.324400 -0.190070 
-0.753080 0.497000 -1.049400 
0.438780 0.423810 -1.603900 
0.665200 -0.293500 -1.438800 
-0.172700 -1.189500 -1.018800 
-0.669590 1.082000 -1.265700 
-0.136450 -1.163300 -1.489200 
0.334680 0.996280 -0.794520 
0.766250 -1.213500 0.132600 
-1.090600 -0.071954 -0.008489 
0.623180 -0.446190 -1.119600 
-0.031579 -1.182200 -0.549960 
0.538430 -0.470340 -0.658630 
-0.278660 -0.459350 -1.492700 
0.554720 0.690980 -0.376360 
-0.095860 -1.108000 -1.610200 
0.820780 0.085944 -0.301080 
0.461200 0.988610 -0.407000 
0.554480 -1.414500 0.176200 
-0.664450 1.244300 -0.429860 
1.048800 -0.271900 -0.005587 
0.636570 -0.780090 -0.675220 
0.459390 0.141760 -1.228200 
0.612580 0.456480 -0.392160 
0.710480 -1.079200 0.120710 
0.138380 1.299500 -0.513740 
0.599220 -0.276920 -1.171500 
-0.746630 0.163920 -0.638500 
0.231550 -1.475700 0.109220 
-0.079984 -1.353200 -0.203000 
0.734240 -0.139340 -1.550100 
0.698060 -0.392650 -1.315400 
-0.620690 1.265500 -0.280990 
0.494620 -0.961430 -0.728370 
0.321590 0.575230 -0.876310 
0.562110 -0.276670 -0.839390 
0.332370 0.930850 -0.665590 
0.481680 1.449300 -0.167710 
0.299440 0.714400 -1.263500 
-0.852120 0.391960 -1.264300 
0.913510 -0.745900 0.083347 
0.634320 0.056691 -0.991840 
0.293400 -1.048100 -0.042095 
-0.464300 1.449800 0.061961 
0.647190 -0.907210 -0.723990 
-0.199780 1.379200 -0.824210 
0.825170 1.009400 -0.226980 
0.306760 -1.155000 0.059492 
0.502100 0.092519 -1.038400 
-1.077100 0.282680 -0.005911 
-0.329940 1.711900 0.080274 
-0.566480 0.811420 -0.530960 
0.401450 0.452900 -0.663480 
0.082042 1.196300 -1.007100 
0.753420 -0.875830 0.082804 
-0.549020 -1.223100 -0.316040 
-0.725300 0.469740 -1.322900 
0.478520 1.084600 -0.500600 
-0.368870 -0.359150 -1.108500 
-0.656720 -0.792000 -0.303270 
0.475450 -1.041900 0.062017 
-0.405120 -0.441240 -0.585770 
0.486040 1.614000 -0.139860 
0.609630 -0.190680 -0.971650 
0.153940 -1.378200 -0.142830 
0.778690 -0.040066 -0.415980 
-0.157270 1.441800 0.003954 
0.552210 -0.305230 -0.686710 
-0.546240 0.939620 -0.668600 
0.017831 1.312900 -1.059100 
-0.669200 -0.071096 -0.323210 
-0.469490 1.228300 -0.518460 
-0.657300 -0.180460 -1.186700 
0.453950 1.264200 -0.628230 
0.226340 1.117800 -0.693650 
0.773130 -0.487190 -0.052655 
1.084300 -0.672680 0.060106 
-0.702230 0.104310 -0.365420 
-1.052400 1.199500 0.018949 
0.297570 -1.169000 -1.090500 
-0.126120 -1.480700 -0.135660 
0.635440 -0.683400 -0.145760 
0.374370 -0.915990 -0.598790 
0.899600 -0.191760 -0.068244 
0.290500 0.717970 -1.067500 
0.559390 -0.436590 -0.474560 
-0.052361 -1.000200 -1.106300 
0.432840 -1.180200 0.123450 
-1.085100 0.138460 0.010940 
0.600050 -0.677840 -0.296870 
0.309720 0.721460 -0.790000 
-0.843240 0.514880 -0.500030 
-0.722700 -0.166370 -1.304200 
-0.876580 -0.405560 -0.182800 
-0.366010 1.575400 0.083883 
0.425450 1.023500 -1.498300 
0.295380 0.860080 -1.255300 
-0.638030 0.588840 -1.297000 
-0.567620 1.187100 -0.954200 
0.571010 0.166730 -1.685400 
0.560000 0.303010 -1.661100 
-0.791900 0.090773 -0.748090 
-0.677920 -0.001971 -0.788640 
-0.042067 -0.850520 -1.093200 
-0.203510 -0.593970 -1.121800 
-0.264940 -1.060600 -0.415340 
0.608360 -0.315290 -0.379890 
0.312330 1.155700 -0.809910 
0.530370 -0.557490 -0.543400 
0.051989 -1.250100 -1.046800 
0.966660 -0.944110 0.094246 
0.387310 0.275760 -1.242900 
-0.677090 0.518730 -1.189700 
-0.515650 1.661100 0.084646 
0.454710 1.073300 -0.649290 
-0.198120 -1.055200 -0.538100 
-0.592630 1.337000 -0.851620 
0.406290 0.303430 -0.781120 
-0.168380 1.287100 -0.707070 
0.605730 1.345200 -0.225440 
0.337370 0.998080 -1.238900 
-0.852270 0.412620 -1.092500 
0.339390 1.187700 -0.633900 
-0.075710 -0.771360 -1.259100 
0.101750 1.277700 -0.666900 
0.283050 0.867150 -0.969710 
-0.526530 -0.234350 -1.105700 
0.732850 -0.082475 -0.690370 
0.381940 0.844780 -1.540900 
-0.781710 0.595600 -0.397110 
0.595150 -0.704300 -0.559260 
0.569980 -0.363530 -0.958010 
-0.862880 0.464150 -0.371800 
-0.135090 -1.038000 -0.955080 
0.639420 0.584890 -0.350130 
-0.809470 0.101950 -0.124480 
0.561670 -0.530530 -0.372290 
0.259320 1.183900 -1.241500 
0.669160 0.177730 -0.408220 
-0.070355 -1.229300 -0.360540 
-0.388870 -0.346110 -1.272000 
-0.245250 1.177200 -0.401420 
0.228820 1.139500 -1.082100 
0.591870 -1.144300 0.129770 
-0.153130 -0.664420 -0.995500 
-0.896270 0.194530 -0.067764 
0.016988 1.366200 -0.460540 
-0.250480 -0.932200 -0.453150 
-0.559370 -0.377580 -0.405700 
-0.064437 -1.290600 -1.428900 
-0.508720 -0.313940 -0.518110 
0.594430 1.209100 -0.367510 
0.542710 0.086541 -1.495400 
0.005351 1.391900 -0.630720 
-0.695410 0.062403 -0.507440 
-0.581410 0.800090 -1.095600 
0.280940 -1.089000 -0.945080 
-0.245810 1.205000 -0.261900 
0.083997 -1.312100 -0.923210 
0.047766 -1.249400 -0.459900 
0.758960 -0.305020 -0.134510 
0.707340 0.038339 -1.153500 
0.626030 0.047914 -1.608600 
0.413610 0.210680 -1.092700 
0.293090 0.719490 -0.924810 
0.320470 0.851890 -1.401400 
0.505310 0.851920 -1.704700 
0.698520 0.968870 -0.243330 
0.399940 1.242400 -0.871150 
0.382650 1.234900 -1.024600 
-0.130470 1.216800 -0.336940 
-0.731120 1.173900 -0.238670 
-0.596910 0.932850 -1.073800 
-0.897760 0.788710 -0.027617 
-0.981870 0.030960 -0.009514 
-0.853240 0.563480 -0.282350 
-0.618310 -0.080428 -0.448450 
-0.922950 -0.599850 -0.232230 
-0.504400 -0.264940 -1.246300 
-0.120610 -0.704300 -1.382400 
-0.040810 -0.835780 -1.393700 
-0.153090 -1.248500 -0.466250 
0.188240 -1.237400 -0.802550 
0.147400 -1.439700 -0.299850 
0.257320 -1.295000 -1.239600 
0.415130 -1.371500 0.178800 
0.534910 -1.280000 0.165440 
0.228250 -0.970450 -0.295410 
