-0.074006 1.712400 0.037366 
0.505310 0.851920 -1.704700 
0.783710 0.008742 -0.431690 
0.494620 -0.961430 -0.728370 
0.647120 0.041257 -1.290000 
-0.717880 -0.110090 -0.229870 
0.206830 1.307300 -1.414100 
0.196040 -1.233600 0.030686 
-1.052400 1.199500 0.018949 
0.635280 -0.866880 0.023217 
0.512460 1.239000 -0.616420 
0.564840 -0.356140 -0.921030 
-0.135090 -1.038000 -0.955080 
-0.703850 0.214990 -0.378280 
-0.730540 0.622070 -0.390280 
-0.192310 -0.616530 -0.909330 
0.015160 1.405200 -0.096073 
0.692420 0.065232 -0.670560 
-0.090345 1.378900 -0.060883 
-0.229310 -1.168200 -0.569050 
-1.113400 0.130010 0.013741 
0.129170 -1.332900 -1.067400 
0.117680 -1.083700 -0.511060 
0.388770 1.040700 -1.094600 
0.435930 0.779040 -1.641000 
0.638510 -1.019600 0.097464 
0.384880 1.039000 -0.965550 
0.287170 -1.135600 0.032797 
-0.135020 -0.973570 -0.616420 
0.457020 0.142960 -1.181300 
0.175310 1.197800 -0.479720 
0.355170 -1.264000 -1.255700 
0.151260 -1.432500 -0.332440 
0.398370 0.298210 -0.823550 
-0.065044 -1.048500 -1.336800 
-0.714460 0.550870 -0.928740 
0.258390 -1.335100 -1.013200 
0.408150 0.951320 -1.701700 
0.551220 -0.382770 -0.770850 
0.783040 -0.820610 0.075458 
0.301060 1.148100 -0.923270 
-0.778940 -0.212500 -0.178370 
0.941310 0.591950 -0.297780 
-0.020194 -1.174300 -0.669610 
0.605730 1.345200 -0.225440 
-0.038287 1.306000 -0.230300 
0.117040 -1.236500 -1.540300 
-0.471000 1.189600 -0.237630 
0.331340 -1.065600 -0.807860 
0.473530 1.235500 -0.786550 
-0.585060 0.804680 -1.129800 
-0.608760 0.887840 -1.222000 
-0.727400 0.468630 -1.294000 
0.489160 0.346530 -0.553550 
0.394830 1.240200 -0.908650 
-1.117400 0.926140 0.028997 
0.744700 -0.052873 -0.936140 
0.401720 -0.874750 -0.512720 
-0.646530 0.702410 -0.374600 
-0.693190 -0.218930 -0.266860 
0.414410 -0.908480 -0.103160 
0.496330 -1.462900 0.180340 
-0.835770 0.330420 -0.178200 
0.735250 -1.100000 0.123920 
0.357520 0.846970 -1.495900 
0.038131 1.393900 -0.782850 
0.334380 -0.997950 -0.059732 
0.393830 0.860970 -0.511190 
0.389370 1.133400 -1.644400 
0.330760 0.998220 -0.837120 
-0.601610 0.820670 -0.361310 
0.465610 0.608300 -0.488800 
-0.741420 0.924590 -0.098579 
0.170940 1.350900 -0.342170 
-0.653830 0.964700 -0.194720 
-0.826990 0.561210 -0.397310 
0.699690 -0.588660 -1.117900 
-0.279800 -0.477410 -1.075300 
-0.452460 -0.304580 -0.671530 
0.458770 0.164680 -0.862840 
-0.746630 0.163920 -0.638500 
-0.760400 0.300360 -0.265010 
-0.372320 1.605700 0.086619 
-0.729340 1.042200 -0.098641 
-0.740210 0.575200 -0.787820 
0.087248 -1.165000 -0.336130 
-0.371850 -0.357610 -1.519000 
0.436910 0.735590 -0.481630 
0.262100 1.210800 -0.351250 
-0.593110 1.459900 0.067287 
0.511010 0.083791 -1.265400 
0.698520 0.968870 -0.243330 
-0.086736 -1.198000 -0.791300 
-0.198270 -1.382300 -0.183340 
0.844360 0.515570 -0.299990 
-0.546080 0.998700 -0.647480 
-0.806990 0.381270 -0.342390 
0.085604 -1.310000 -0.962620 
-0.616930 0.691170 -0.502540 
0.922050 0.711700 -0.284080 
0.641100 0.048505 -1.160500 
1.141400 -0.444360 0.020235 
-0.121970 1.299700 -0.652240 
-0.196510 -1.191900 -0.677770 
0.594890 1.005200 -0.275260 
-0.446890 -0.279460 -1.004200 
-0.581640 0.857970 -1.017400 
0.484430 0.990330 -0.375600 
-1.201800 0.816860 0.017813 
0.019719 1.340000 -0.926740 
-0.714500 0.317470 -0.426390 
0.612370 -0.186100 -0.932820 
0.351000 0.710300 -1.513200 
0.428140 0.206230 -1.332600 
-0.974480 0.942130 0.021119 
-0.945070 0.310850 -1.169400 
0.568530 1.113400 -0.305100 
-0.004773 -1.267500 -1.462000 
0.198370 -1.293000 -0.531430 
-0.304420 1.213200 -0.205560 
-0.310390 1.177200 -0.534780 
0.610260 -0.368340 -0.355570 
-0.921570 0.219810 -1.045300 
-0.103980 -1.202200 -0.942590 
-0.620520 0.644360 -0.910850 
0.529050 0.812300 -0.364430 
-0.317090 -1.048100 -0.369590 
-0.421480 1.223900 -0.134260 
-0.557470 -1.124100 -0.324240 
-0.693760 -0.056720 -1.031500 
-1.109600 1.067900 0.024118 
0.166280 -1.351200 -0.213220 
-0.362350 1.167500 -0.320920 
0.640540 1.241300 -0.253990 
0.286440 1.583100 -0.088260 
0.051796 -1.401200 -0.376530 
-0.306490 -0.437510 -0.944930 
0.146410 -1.663300 -0.027070 
0.198780 -1.136900 -0.042204 
-0.267900 -0.635200 -0.633340 
-0.806580 -0.363350 -0.200680 
-0.224080 1.320700 -0.820520 
0.661230 -0.306780 -0.267880 
0.595310 0.237670 -1.684600 
1.178400 -0.222020 -0.029220 
0.475360 1.345600 -0.258270 
0.236510 -1.327200 -1.137800 
-0.128240 -0.841240 -0.668440 
-0.937930 0.363310 -0.097821 
0.503210 0.090272 -1.083400 
0.170420 -1.406200 -0.533200 
0.212830 1.113300 -0.768600 
-0.023894 -1.651700 -0.100450 
-0.706110 -0.590850 -0.274580 
0.505920 -0.909390 -0.627940 
0.626670 -0.595200 -1.024900 
-0.051344 -1.043100 -1.600000 
0.899600 -0.191760 -0.068244 
0.349570 1.266500 -0.278770 
0.654490 -0.229060 -1.480600 
0.767840 -0.074887 -0.355330 
0.067181 -1.578300 -0.080593 
-0.206030 -0.580760 -1.331300 
0.583960 -0.689460 -0.889510 
-0.027678 1.398300 -1.012900 
0.692030 -0.341820 -1.394200 
0.614110 -0.218300 -1.198000 
0.655780 -0.170870 -1.293900 
0.484660 1.132300 -1.080500 
0.326150 0.638950 -1.415100 
-1.254000 0.335860 0.001576 
0.495580 1.124700 -0.769420 
0.334130 1.357000 -0.187360 
0.141320 -1.266600 -0.349730 
-0.289910 -0.455960 -1.365200 
-0.201860 -1.137200 -1.016800 
0.564670 -0.387040 -0.506870 
0.490580 1.127700 -0.882690 
0.295020 0.942920 -1.059900 
0.723100 -0.102910 -0.512880 
0.364090 0.989380 -0.628930 
1.039400 -0.341290 0.010771 
0.077419 1.274100 -0.758680 
0.633370 -0.398840 -1.197100 
0.873840 0.056939 -0.223960 
-0.487050 1.274400 -0.046432 
0.211490 1.483400 -0.122900 
-0.049580 -0.859210 -0.962000 
-0.847610 0.055985 -0.848770 
0.560430 0.066938 -0.906660 
0.620000 -0.751630 -0.760510 
0.750270 -0.139320 -0.226600 
0.141140 -1.043100 -0.398050 
0.415120 0.219070 -0.953520 
0.226310 -1.236000 -0.920550 
-0.732010 0.472420 -1.174000 
0.319140 0.781390 -1.408800 
-0.372960 1.294800 -0.054780 
0.206410 -1.350500 0.086018 
-0.705020 0.318390 -0.560470 
0.711360 1.095200 -0.213860 
0.566500 0.087450 -0.738980 
0.607170 -0.260390 -0.403740 
0.103530 -1.255300 -0.191300 
-0.688810 0.526360 -1.060500 
0.481240 0.499850 -1.687500 
0.190750 1.119100 -0.921680 
-0.701090 0.110810 -0.421360 
1.149800 -0.084918 -0.060237 
-0.581160 -0.092243 -0.558990 
0.579680 0.094986 -1.671300 
0.882020 -0.380520 -0.018234 
-0.952490 1.138600 0.025744 
-0.667800 0.017328 -0.505240 
-0.828300 0.217280 -0.129670 
-0.835530 -0.534550 -0.228410 
0.379870 -0.872180 -0.244470 
0.088508 1.180400 -0.933750 
0.673120 -0.866340 -0.771220 
-0.079984 -1.353200 -0.203000 
0.114260 1.350600 -0.463030 
-1.106300 -0.013260 0.004334 
0.297440 -1.119300 -1.054000 
0.908570 0.837460 -0.261940 
-0.958860 -0.536470 -0.209140 
0.052854 1.378000 -0.666590 
0.149060 -1.243900 -1.208700 
0.384080 1.232500 -0.666930 
0.418830 1.020500 -1.592500 
0.623540 -0.171820 -0.814240 
-0.841630 0.957710 -0.022851 
-0.465780 1.355200 -0.763780 
-0.884830 1.443700 0.025875 
0.276820 -1.435400 0.140840 
-0.698460 0.952020 -1.345400 
0.745510 -0.042175 -0.818470 
0.358100 0.492610 -1.462600 
-0.326120 1.272800 -0.793450 
-0.660350 1.198200 -1.196400 
-0.589710 -0.278380 -1.457600 
-0.130470 1.216800 -0.336940 
0.297730 0.863770 -0.790890 
0.610240 0.887870 -0.294560 
0.666700 -1.313800 0.155850 
0.792090 -0.045612 -1.608000 
1.130900 0.187180 -0.180500 
0.382940 -0.923440 -0.619690 
0.334400 1.001000 -1.192900 
-0.440210 -1.407600 -0.246720 
-0.593160 1.046600 -0.518730 
-0.713120 -0.106170 -1.135700 
0.291140 -1.238500 0.100530 
-0.565000 -0.197750 -1.076900 
1.031500 -0.815200 0.079585 
-0.297980 -1.548700 -0.166630 
0.475790 0.184060 -0.736750 
-0.140910 -1.168500 -1.621500 
-0.338330 -0.628260 -0.535930 
0.818260 0.625810 -0.292680 
-0.589940 1.165000 -0.797850 
-0.705150 0.031743 -0.288970 
0.372070 1.470600 -0.142050 
-0.234980 -0.546710 -0.993510 
0.120120 -1.297100 -0.077738 
0.225210 1.367700 -0.218720 
-0.164350 -1.153900 -1.317900 
-0.482230 -0.776700 -0.365780 
-0.214700 -0.753830 -0.598990 
-0.324280 -1.328200 -0.238080 
0.185090 -1.401000 -0.671040 
0.047309 -1.206900 -1.368700 
-1.109400 0.277740 0.000738 
-0.631060 1.052400 -0.377200 
0.420460 1.644900 -0.124730 
-0.575700 1.231900 -0.903440 
-0.890180 0.328280 -1.038000 
-0.646320 0.811540 -1.376100 
0.165270 -1.210100 -1.318600 
-0.168250 -1.056200 -0.759200 
0.031170 -1.268500 -0.386520 
-0.572080 -0.548160 -0.346450 
0.380350 0.567010 -1.564900 
-0.040909 -1.277900 -0.283740 
-0.241660 -0.596910 -0.744020 
-0.514550 -1.248200 -0.303450 
-0.329940 1.711900 0.080274 
0.476020 -1.325700 0.175250 
-0.190910 1.238400 -0.213790 
0.091875 1.297400 -1.202600 
-0.580770 1.373500 -0.969810 
-1.122400 -0.140900 -0.032805 
0.412790 1.272800 -0.388760 
-0.501010 1.599700 0.087198 
0.493160 0.221730 -1.572800 
-0.602270 -0.112990 -0.991250 
-0.552550 -0.236740 -1.183400 
-0.555070 -0.214880 -0.493240 
0.745270 0.161610 -0.345910 
0.909930 0.419100 -0.285930 
-0.175530 -1.268600 -0.362970 
0.228930 1.710800 -0.066750 
-0.744910 -0.467080 -0.249930 
-0.617110 -0.217790 -0.372490 
0.557300 1.310600 -0.328850 
0.134680 -1.466000 -0.096800 
-0.372530 -1.236700 -0.283440 
-0.583870 1.273300 -1.060600 
0.634120 -0.739260 -0.101150 
0.379250 -0.862430 -0.385360 
-0.244790 1.189300 -0.317350 
0.748610 0.857280 -0.257290 
-0.189080 -1.530800 -0.135560 
0.611320 -0.442740 -1.088100 
-0.244700 1.601900 0.072538 
-0.841000 0.831830 -0.048898 
-0.377390 -0.362780 -0.809050 
-0.024831 -0.899830 -1.577300 
-0.033831 -0.931430 -1.054900 
-0.177270 -1.198300 -1.188200 
-0.622580 1.268300 -0.252730 
-0.332020 -0.528640 -0.629320 
0.697630 -0.496880 -1.205400 
-0.477750 -0.613540 -0.401570 
-0.200740 -1.162100 -0.820180 
1.106100 -0.597570 0.048120 
0.506730 0.209850 -0.619440 
0.340940 0.860310 -0.624180 
0.632920 0.153400 -0.472350 
-0.204640 1.732200 0.062765 
0.473460 0.476830 -0.522890 
-0.337640 -0.399770 -1.278000 
0.318970 0.722310 -0.746960 
-0.095613 -0.814560 -0.785340 
-0.646970 -0.006977 -0.638270 
-0.117400 -0.702760 -1.560600 
0.316530 0.573630 -0.921810 
-0.815170 1.349700 0.027496 
-0.398400 -1.128400 -0.316640 
0.144660 -1.065700 -0.254400 
-1.229800 0.486480 0.001563 
-0.981870 0.030960 -0.009514 
0.314670 0.648890 -0.833210 
0.358280 0.726100 -0.624580 
0.647620 0.348900 -0.385520 
-0.852810 0.392880 -0.929150 
-0.610050 0.651700 -1.054000 
0.407970 1.218900 -1.338200 
0.023987 1.346600 -1.114800 
-0.599200 1.098200 -0.636380 
0.748820 -0.030664 -0.701070 
-0.642890 1.609000 0.070689 
-0.880030 0.415700 -0.243180 
0.447910 1.074600 -1.215000 
-1.119900 0.667400 0.015730 
0.584850 0.045368 -1.390500 
0.120900 1.174400 -1.061300 
-0.705900 -0.004738 -0.877670 
0.148750 -1.414500 0.007314 
0.706210 -0.361350 -0.179060 
-0.177330 -0.716570 -0.704830 
0.688700 0.027819 -1.642000 
0.277070 -0.922440 -0.392120 
-0.691680 1.382100 0.032586 
0.745710 -0.481610 -0.078628 
0.591760 -0.214950 -0.511690 
-0.727820 0.144500 -0.268280 
-0.393430 -0.348210 -1.394200 
0.549880 1.578600 -0.152920 
-0.747160 0.678600 -0.219570 
0.107030 1.168100 -0.788300 
-0.874990 0.144010 -0.919410 
-0.675250 0.841990 -0.203500 
0.387310 0.275760 -1.242900 
0.011046 1.376300 -0.546000 
-0.573400 -0.315240 -0.410370 
-0.618010 0.660030 -1.367800 
1.046000 0.282880 -0.227840 
-0.507920 -0.205230 -0.660180 
-0.174000 -0.875370 -0.565120 
0.450280 1.133100 -1.469300 
-0.396270 -0.426260 -0.619900 
-0.471820 1.296900 -0.661400 
-0.689530 -0.350500 -0.278720 
-0.306090 -0.476030 -0.779140 
-0.430330 -0.878680 -0.374960 
-1.113800 0.541820 -0.001082 
-0.061287 -0.939730 -0.844480 
-0.052269 -1.204500 -0.433700 
-0.158580 -0.657760 -1.081200 
-0.575750 0.776070 -0.914490 
-0.036124 -0.999450 -1.234300 
0.852510 -1.112500 0.114890 
-0.847200 0.084979 -0.086223 
-0.283860 1.473200 0.046779 
-0.720520 0.255620 -0.699670 
0.362830 1.215400 -0.536910 
-0.191970 -0.580590 -1.550900 
0.246380 1.212200 -1.321100 
-0.377470 -0.750920 -0.438160 
0.291150 0.862220 -1.206800 
1.016000 -0.484450 0.039746 
0.317090 -1.007400 -0.684360 
-0.202530 1.338400 -0.065470 
0.647350 1.475800 -0.169820 
-0.161880 -0.641410 -1.421600 
0.181150 -1.237300 -0.770540 
-0.582830 0.900550 -0.889580 
-0.687020 -0.210590 -1.370000 
0.667020 -0.580890 -0.121180 
-0.410950 -0.540820 -0.498730 
-0.869590 -0.193780 -0.108050 
0.894190 0.966810 -0.239290 
-0.565440 1.244700 -0.357800 
-0.555670 0.943560 -0.750110 
-0.604160 1.319300 -0.024821 
0.516290 0.722960 -1.711300 
-0.018525 -0.917430 -1.357800 
0.538700 -0.608590 -0.771420 
0.799230 -0.688130 0.038731 
0.266310 1.173800 -1.201300 
-0.557080 1.382400 -0.844440 
-0.078927 -1.503400 -0.131020 
-0.373010 1.237400 -0.680560 
0.639420 0.584890 -0.350130 
0.360590 0.512140 -0.744650 
-0.486650 -0.218730 -0.802070 
-0.601200 0.939240 -1.108200 
0.454710 1.073300 -0.649290 
0.321960 0.497160 -1.060600 
0.726970 0.488680 -0.328600 
0.613310 -0.521960 -0.237490 
-0.135060 1.208700 -0.451470 
1.181900 0.031513 -0.108300 
0.719040 -0.927350 0.088326 
-0.355930 -0.369700 -1.024800 
0.615930 -0.875140 -0.633550 
-0.629240 0.639150 -0.796650 
-0.064405 1.298300 -0.489240 
0.742450 0.271780 -0.321940 
-0.849790 1.087000 -0.003806 
-0.667790 -0.183970 -1.222300 
0.078071 -1.367500 -0.651590 
-0.389460 1.388100 0.023340 
-0.744920 -0.892050 -0.308490 
0.595500 0.373050 -1.689400 
-0.164510 -0.649930 -1.207700 
-0.296510 -0.898670 -0.435780 
0.539220 -0.496850 -0.512040 
0.226310 -1.347200 -0.773370 
0.221260 -1.611400 0.050347 
0.561170 -0.259030 -0.759020 
0.347160 0.990380 -1.331400 
0.594430 1.209100 -0.367510 
0.319150 0.566440 -1.312600 
-0.853150 0.658570 -0.120560 
-0.136450 -1.163300 -1.489200 
0.749080 -0.080003 -1.291200 
-0.164950 1.495300 0.031872 
0.644980 -0.704420 -1.002400 
-0.090090 1.470800 -0.917090 
-0.723840 1.235700 -0.193940 
-0.187100 -1.004200 -0.520190 
-0.116670 -1.274800 -1.486100 
-0.935650 -0.290180 -0.118120 
-0.209840 1.255900 -0.721960 
0.411760 0.422270 -1.557200 
0.398400 -1.245700 0.143670 
0.466050 1.188800 -1.234000 
-0.637420 0.636110 -0.675900 
0.018239 -1.216700 -0.974070 
0.571540 -0.685190 -0.678580 
-0.593420 0.973800 -0.980710 
0.353280 0.419880 -1.355800 
0.427620 0.644620 -1.654800 
-1.219100 0.178170 0.009744 
0.003129 -1.278500 -1.590400 
0.194090 1.144200 -0.578320 
-0.946070 0.684350 -0.035370 
-0.565020 1.074800 -0.911270 
-0.906360 0.520200 -0.208280 
-0.804770 0.260190 -0.899430 
-0.852120 0.391960 -1.264300 
-0.984200 -0.169570 -0.053450 
0.331640 -1.072300 -0.931020 
0.732020 -0.246480 -0.183900 
-0.471310 1.479000 0.071279 
0.573360 -0.477020 -0.369330 
-0.716760 0.115120 -0.533550 
0.564810 -1.209900 0.147740 
-0.637370 0.584890 -1.204100 
0.665950 -0.194930 -0.311470 
0.363270 0.359030 -0.914000 
0.788340 -0.306430 -0.105570 
-0.975070 0.813510 0.008157 
0.092655 -1.372200 -0.797850 
-0.031579 -1.182200 -0.549960 
-0.073170 -0.783420 -1.044500 
0.582490 -0.322340 -1.067200 
-0.764410 0.591610 -0.517680 
-0.478630 -0.360090 -0.534530 
0.012914 1.491300 -0.018602 
1.017000 -0.200640 -0.027316 
-0.571430 0.825400 -0.786210 
-0.986740 0.527710 -0.080239 
-0.804240 0.554390 -0.665150 
0.670250 0.034412 -1.465900 
0.563260 -0.575750 -0.884570 
-0.146530 -1.088300 -1.224900 
-0.612460 1.311800 -0.750300 
0.045629 1.739800 -0.002398 
0.917910 0.270890 -0.236850 
-0.560750 -0.858640 -0.329610 
-0.053197 -1.046500 -1.469000 
0.489110 0.144650 -1.464700 
-0.042783 -0.834420 -1.436900 
-0.627440 1.053800 -1.083800 
0.540780 0.624610 -0.406010 
0.694500 -0.768710 0.002746 
0.872690 1.096800 -0.221680 
0.515760 1.290000 -0.443990 
0.058070 -1.309300 -0.506700 
0.595220 -0.187780 -0.665360 
0.037704 -1.202400 -1.246200 
-0.819190 0.480320 -1.000100 
0.228250 -0.970450 -0.295410 
-0.648740 1.249600 -0.630670 
-0.604800 -0.658470 -0.316250 
-0.769310 1.537300 0.047739 
0.100760 -1.207300 -0.455740 
0.499990 1.092900 -0.430200 
0.324140 0.494510 -1.208900 
0.930530 -1.003300 0.100840 
-0.433470 -0.305400 -1.181600 
0.304330 -1.220200 -1.104200 
0.403680 0.986930 -0.512200 
0.636240 0.054835 -1.033700 
-0.521550 -0.197030 -0.959530 
-0.812760 0.601080 -0.277590 
0.798060 0.743800 -0.274030 
-0.718270 0.016738 -0.759120 
0.565710 -0.462990 -0.877620 
-0.328770 -0.409210 -1.155000 
-0.675690 -1.006100 -0.324230 
-0.579030 1.144500 -1.002300 
-0.467280 1.192000 -0.382750 
-0.656720 -0.792000 -0.303270 
-1.055600 -0.333450 -0.118190 
0.213370 -1.287600 -1.463600 
0.632430 -0.291790 -1.309200 
-0.561670 -0.089490 -0.749740 
-0.506670 1.369400 0.032247 
-0.831820 0.500390 -0.863280 
0.299210 0.643980 -1.066500 
-0.069451 -1.279400 -1.342500 
0.447200 1.072300 -1.347000 
0.526160 -1.005100 0.058538 
0.293090 0.719490 -0.924810 
0.734240 -0.139340 -1.550100 
0.518310 1.130100 -0.551850 
1.063100 0.089467 -0.122380 
0.537090 -0.810180 -0.238510 
-0.630270 -0.447300 -0.320850 
0.386730 -1.549700 0.161130 
0.124510 1.288300 -0.574350 
-0.117230 -1.039800 -1.080300 
-0.583560 1.267000 -0.129540 
-0.776580 0.117780 -0.168070 
0.703880 -0.110450 -1.042500 
0.404190 0.594850 -0.589520 
0.690590 0.056934 -0.788860 
-0.155810 -0.688060 -0.824200 
-0.886890 -0.660630 -0.251990 
0.284170 0.791350 -1.065800 
-0.602940 0.739960 -1.226000 
0.036030 -1.453100 -0.253750 
0.028613 1.365800 -0.345670 
-0.110410 -0.728450 -0.952980 
-0.761080 -0.006045 -0.172490 
0.695930 0.051570 -0.908790 
-0.082123 -1.258800 -1.217500 
0.197260 -1.042600 -0.654890 
0.743570 1.235800 -0.192770 
0.610100 -0.677810 -0.236100 
0.194530 -1.366900 -0.429620 
-0.092422 -0.952720 -0.725670 
0.368490 1.230300 -1.185400 
0.761030 -0.024453 -1.390800 
0.852000 -0.084383 -0.155520 
0.531550 1.424500 -0.181580 
0.816450 -1.001000 0.113440 
-0.117660 -1.284200 -1.621100 
-0.318540 -1.432100 -0.187140 
-0.923910 -0.432160 -0.179040 
0.384320 0.973880 -1.467600 
0.203430 -0.999220 -0.521900 
0.947480 0.127870 -0.175100 
0.559070 -0.289510 -0.605820 
0.788240 1.341400 -0.195610 
-0.703820 1.206000 -0.372590 
-0.820620 0.415210 -0.518770 
0.465710 -1.118700 0.101180 
0.593640 0.120770 -0.580380 
0.818050 0.031524 -0.322180 
0.555210 -0.587130 -0.408590 
0.295310 -0.927780 -0.505070 
0.231620 -1.124200 -0.936570 
0.268040 -1.286000 -1.341600 
0.440010 0.322660 -0.660900 
0.512610 -0.849150 -0.113370 
-0.922890 0.249640 -0.062164 
-0.514960 1.273800 -0.542870 
0.213990 -1.084700 -0.814130 
1.031100 -0.077637 -0.061687 
0.688120 -0.127730 -0.714620 
0.330700 1.196700 -1.074200 
0.554140 0.089874 -1.539500 
0.565490 -0.654440 -0.534840 
-0.541770 -1.005300 -0.331030 
0.913510 -0.745900 0.083347 
0.757780 -0.016252 -0.584390 
-0.038834 -0.841300 -1.264800 
-1.122900 0.413640 -0.004544 
-0.756920 1.280400 -0.051537 
0.606680 -0.199920 -1.048400 
-1.238100 0.692880 0.007351 
-0.169100 1.422700 -0.821290 
0.652470 -0.155170 -0.417260 
0.612580 0.456480 -0.392160 
0.047026 -1.245100 -1.086800 
0.341930 1.237700 -1.435700 
-0.714470 1.116600 -0.243520 
0.766250 -1.213500 0.132600 
-0.779920 0.381830 -0.654190 
0.743820 -0.002892 -1.063600 
0.594860 -0.734450 -0.390660 
0.718100 -0.130800 -1.392100 
0.413610 0.210680 -1.092700 
-0.247650 -0.526050 -1.202800 
-0.550690 0.940890 -0.505190 
0.674440 0.715390 -0.305580 
-0.053479 1.405400 -0.705680 
-0.366080 1.161600 -0.433460 
0.593960 0.263590 -0.452700 
-0.778490 -0.739410 -0.278420 
-0.574550 0.946860 -0.384820 
0.713220 0.084218 -0.517270 
0.356810 0.435810 -0.827590 
-0.148030 -1.243100 -0.501660 
0.646720 -0.782230 -0.869630 
-0.566480 0.811420 -0.530960 
-0.655070 1.078800 -1.207000 
-0.851600 0.404920 -1.121300 
-0.283110 -1.189600 -0.383560 
0.832650 -0.501660 -0.007410 
0.033455 -1.202200 -0.858020 
0.951330 -0.612330 0.059890 
0.163920 -1.094900 -0.145920 
-0.278660 -0.459350 -1.492700 
0.701150 -0.119010 -1.158600 
0.553130 0.373600 -0.462430 
0.162050 -1.239700 -0.636040 
-0.245950 1.176000 -0.429360 
0.393530 0.348700 -1.450500 
-0.848790 -0.049728 -0.086404 
-0.246740 -1.094500 -0.453750 
0.350080 1.280600 -1.559200 
-0.797990 0.369860 -0.789620 
-0.760730 1.151000 -0.118080 
0.358140 1.210500 -0.805880 
-0.546060 -0.442910 -0.396150 
0.175840 1.594400 -0.044371 
0.285770 1.137600 -0.663310 
0.439040 1.232200 -1.050400 
0.158020 -1.394300 -0.923030 
-0.577580 -0.243770 -1.340700 
-0.124870 -1.215100 -1.059300 
-0.615660 1.270300 -0.477480 
0.304500 0.713250 -1.313100 
-0.653260 -0.054016 -0.375850 
0.247800 -0.999430 -0.165540 
0.597260 -0.797730 -0.498070 
0.284380 0.866710 -0.924090 
-0.575830 0.753000 -0.669490 
-0.979460 1.328600 0.016479 
-0.195080 1.198700 -0.548890 
0.356310 0.352210 -1.053700 
0.121370 -1.133400 -0.659830 
0.073770 -1.237200 -0.733730 
-0.076681 -0.767940 -1.344400 
-0.040825 -0.848140 -1.136300 
-0.449220 -0.300240 -1.302500 
-0.560970 -0.114080 -0.878690 
-0.804550 0.143120 -0.772910 
-1.001000 0.162960 -0.010593 
-0.844710 0.457090 -0.728050 
-0.553350 0.874820 -0.645630 
-0.553670 1.058800 -0.769420 
-0.831800 1.204300 -0.013098 
-0.670190 1.142500 -0.518400 
-0.424110 1.192700 -0.526500 
-0.050901 1.288300 -0.375480 
0.061237 1.602700 0.001745 
0.087601 1.412800 -0.240570 
0.234420 1.132100 -1.043000 
0.302950 0.641860 -1.214100 
0.416930 0.458290 -0.625850 
0.527020 -0.578720 -0.643500 
0.509010 -0.860100 -0.462050 
-0.056926 1.595000 0.034833 
0.791130 0.394270 -0.308890 
0.746630 -0.012152 -1.184200 
0.547050 -0.415140 -0.659230 
0.621010 -0.764100 -0.603330 
0.886950 -0.888560 0.102870 
