0.173770 -1.107400 -0.110510 
-0.384520 -0.907300 -0.387440 
-0.836450 0.509350 -0.720080 
-0.788470 0.537590 -0.847610 
-0.909920 0.415970 -0.178320 
0.163990 -1.193800 -0.033455 
0.688700 0.027819 -1.642000 
-0.849730 0.452380 -0.833080 
0.616470 -1.081500 0.113220 
0.823240 -0.564340 0.008785 
0.197060 -1.654700 0.012307 
-0.053584 -1.300500 -0.254120 
-0.695060 -0.928640 -0.315400 
0.431250 0.353100 -1.549900 
0.312940 0.572240 -0.968250 
0.366100 0.979110 -1.423500 
1.185700 -0.153330 -0.047430 
-0.646320 0.811540 -1.376100 
-0.482880 -0.227430 -0.763570 
0.420030 1.260500 -0.539390 
-0.693190 -0.218930 -0.266860 
-0.023894 -1.651700 -0.100450 
-0.420470 -1.015900 -0.346610 
-0.141240 -1.621400 -0.127160 
-1.137400 0.608140 0.010823 
0.471020 1.129600 -1.290700 
0.038013 -1.212200 -1.205600 
-0.382170 -0.592630 -0.503710 
-0.712050 0.218680 -0.590600 
-0.268640 -1.243500 -0.354260 
-0.015882 1.742300 0.017115 
0.076574 -1.498800 -0.179390 
0.284060 -0.983360 -0.617030 
-0.168270 -0.706060 -0.743320 
-0.199590 -1.135000 -1.059300 
0.585980 -0.259550 -1.061800 
-0.804660 0.365720 -0.822700 
-1.122400 -0.140900 -0.032805 
-0.196510 -1.084000 -0.927440 
-0.513310 1.220600 -0.381580 
-0.631300 1.281900 -0.167880 
0.099618 1.319300 -1.229100 
0.215090 -1.533800 0.080495 
-0.706760 1.575800 0.059806 
-1.150000 0.042402 0.009642 
-0.604160 1.319300 -0.024821 
0.015296 1.444500 -0.053091 
-0.915070 0.856440 -0.005948 
-0.129560 -1.037400 -0.996330 
-0.911890 0.620830 -0.097185 
-0.507920 -0.205230 -0.660180 
-0.035011 -1.197400 -0.942190 
-0.578800 0.795290 -1.060700 
0.287340 -1.169400 -1.069300 
0.574990 0.047472 -1.300300 
-0.706200 0.316590 -0.593860 
-0.903270 0.355270 -1.222900 
0.597260 -0.797730 -0.498070 
0.210780 1.173900 -1.198100 
0.003129 -1.278500 -1.590400 
0.526860 0.685700 -0.400190 
1.049300 0.140070 -0.147900 
-0.262050 -1.161900 -0.438340 
0.290780 -1.615700 0.098121 
-1.006200 0.641830 -0.019979 
-0.578480 -1.171100 -0.324170 
0.823220 -0.088367 -0.185640 
-0.201250 -1.230700 -0.507940 
-0.462140 -0.330900 -0.600580 
0.212830 1.113300 -0.768600 
-0.194970 -0.631770 -0.824810 
-0.592450 0.700140 -0.838220 
-0.669590 1.082000 -1.265700 
-0.117340 -1.209500 -1.019800 
-1.052400 1.199500 0.018949 
0.636480 -0.448640 -1.150200 
0.449430 1.071000 -0.726050 
-1.026600 -0.402180 -0.151600 
0.096812 -1.372500 -0.835510 
0.159770 -1.443200 0.033008 
-0.688810 0.526360 -1.060500 
-0.812860 -0.517940 -0.231020 
0.562450 -0.480970 -0.404840 
0.506730 0.209850 -0.619440 
0.623230 1.291700 -0.255690 
0.392230 1.239000 -0.634010 
-0.094860 -1.000900 -0.819440 
-0.772340 0.054949 -0.163750 
0.458160 0.539640 -0.522280 
-0.092942 -1.382700 -0.181610 
-0.105410 -0.958670 -0.688010 
-0.141030 -1.223700 -0.645360 
0.351000 0.710300 -1.513200 
-0.791880 1.174900 -0.060965 
-0.837890 0.512670 -0.610590 
0.553580 0.240980 -0.514150 
0.768460 -0.004550 -0.507450 
0.327410 -1.218800 -1.154600 
-0.308800 1.172600 -0.508430 
-1.157300 0.481230 0.002468 
0.751990 -0.020017 -1.307100 
-0.445680 -0.323620 -1.502600 
-1.015600 0.826430 0.019644 
-0.231510 -0.521040 -1.543900 
-0.548160 0.998760 -0.608430 
-0.556800 0.942540 -0.464760 
0.442200 1.502200 -0.146920 
0.809920 -0.432280 -0.045529 
0.362640 -1.315200 0.157360 
-0.262340 -1.310100 -0.261160 
-0.789940 0.425890 -1.268600 
0.560960 0.063669 -0.949450 
-0.900800 1.180500 0.019041 
-0.300690 -0.581940 -0.632190 
-0.437590 -0.284700 -0.962890 
0.317510 1.201200 -1.195700 
-0.740850 -0.120200 -1.198600 
0.153970 -1.182500 -0.799090 
0.284300 1.154700 -1.080800 
-0.794460 0.695090 -0.146490 
0.488460 1.130200 -0.960350 
0.309040 0.791830 -0.747280 
0.306760 -1.155000 0.059492 
-0.456110 -0.828340 -0.371740 
0.493580 1.125500 -0.806810 
-0.200740 -1.162100 -0.820180 
-0.167500 -1.034700 -0.601080 
0.512460 1.239000 -0.616420 
-0.646360 -0.697930 -0.299970 
0.962530 0.374800 -0.270200 
-0.687020 -0.210590 -1.370000 
-0.656790 -0.132160 -1.101500 
-0.716490 0.089680 -0.284130 
0.252090 -1.406600 0.126290 
-0.861730 0.777050 -0.051292 
-0.072871 -1.048800 -1.293700 
-0.519780 1.305300 -0.617810 
-0.288860 -0.464900 -1.199700 
0.010933 -1.388800 -0.274230 
0.630350 -0.820960 -0.618150 
0.071478 1.334700 -0.728830 
-0.150150 -1.160100 -1.403000 
0.170120 -1.238000 -0.704340 
-0.141390 1.738400 0.049984 
1.059500 -0.745500 0.070608 
-0.521360 -1.272900 -0.303330 
0.355170 -1.264000 -1.255700 
-0.132500 -1.164900 -1.533400 
0.183920 1.283200 -0.376620 
-0.393430 -0.348210 -1.394200 
0.211360 -1.001400 -0.551810 
-0.917460 0.122530 -0.042501 
0.894190 0.966810 -0.239290 
-0.115070 -0.718410 -1.083500 
-0.169190 -0.794630 -0.631830 
0.353360 1.412500 -0.160270 
-0.168250 -1.056200 -0.759200 
-0.380480 -0.351080 -1.190600 
-0.602110 1.047100 -0.483210 
0.646580 -0.162800 -1.181200 
-0.488180 -0.267680 -1.166900 
-1.263600 0.414200 -0.002152 
-1.031400 -0.183590 -0.050921 
0.103530 -1.255300 -0.191300 
0.614880 0.305700 -1.681200 
0.181730 -1.003700 -0.360360 
-0.808350 0.224480 -0.153490 
-0.617350 1.288000 -0.615350 
0.369780 1.220500 -0.734940 
0.312060 0.567760 -1.212000 
-0.636740 0.583160 -1.172300 
-0.165840 -1.193300 -0.939140 
0.205700 -1.237500 -0.863670 
0.387130 0.591050 -0.626500 
0.579540 -0.784160 -0.394190 
-0.727990 1.242700 -0.164420 
-0.418780 -0.350860 -0.684180 
-0.694160 -0.832050 -0.302110 
-0.120860 -0.707340 -1.296200 
0.671220 -0.646700 -1.060300 
0.302370 0.720720 -0.834020 
-0.378930 -0.352700 -0.849730 
-0.824730 0.301440 -0.930580 
0.300990 0.938240 -0.835370 
0.416390 0.278020 -1.441200 
0.138630 -1.281500 -0.275770 
0.542060 -0.602710 -0.506250 
0.166840 1.191000 -0.512290 
0.502370 -1.354300 0.178640 
-0.355240 -0.461930 -0.660650 
0.508920 -1.253600 0.159450 
-1.152000 0.343740 0.001583 
-0.843240 0.514880 -0.500030 
-0.243420 -0.516620 -1.412200 
-0.788720 0.876930 -0.072974 
0.257320 -1.295000 -1.239600 
-0.066836 -0.872450 -0.833240 
-0.136840 -1.230100 -1.140900 
-0.431670 1.296000 -0.036028 
-0.054765 -1.047300 -1.424400 
-0.136640 1.471000 -0.872260 
0.203670 -1.390600 -0.847810 
0.646820 -0.153110 -1.066900 
0.267300 -1.021300 -0.102360 
-0.701860 0.976560 -0.126880 
0.290500 0.717970 -1.067500 
-0.619760 1.092700 -0.571120 
-0.806060 -0.162930 -0.142440 
-0.315310 1.196500 -0.611140 
0.629250 0.063165 -0.867340 
-0.826990 0.561210 -0.397310 
0.535700 -0.812500 -0.294100 
0.327260 0.860860 -0.664410 
0.654180 -0.787450 -0.890000 
-0.598460 0.737750 -1.194400 
-0.442830 -0.737070 -0.395830 
-0.244700 1.601900 0.072538 
-1.261800 0.561130 -0.001617 
-0.470990 -0.440130 -0.484920 
0.374300 0.420310 -1.457600 
0.442980 -1.098100 0.083690 
-0.855660 0.325320 -0.150240 
-0.623550 1.151800 -0.672840 
-0.163250 -0.652430 -1.165600 
-0.310090 -0.487970 -0.739820 
0.294240 1.290700 -1.517100 
-0.745220 0.801010 -0.137480 
-0.303500 1.166600 -0.399560 
0.512820 1.127800 -0.587260 
-0.104910 -0.822610 -0.745060 
-0.676160 0.599730 -0.831150 
-0.113150 1.423700 -0.791350 
-1.081000 -0.265780 -0.085318 
0.646550 0.096453 -0.586940 
0.654490 -0.229060 -1.480600 
0.372540 0.515770 -0.703910 
-0.896800 0.256710 -0.081370 
1.130900 0.187180 -0.180500 
-1.113400 0.130010 0.013741 
-0.513340 -0.234350 -1.066000 
-0.647950 1.191000 -1.171300 
-1.010100 1.096000 0.027804 
0.748380 -0.665880 -0.000650 
0.375740 1.232500 -1.104200 
0.421930 0.227680 -0.864610 
-1.119600 0.793880 0.025482 
0.643410 -0.363260 -0.282490 
0.488300 1.088600 -0.464950 
0.579680 0.094986 -1.671300 
0.676470 -0.698000 -0.060502 
-0.216070 -1.126200 -0.702030 
0.110570 1.488400 -0.091560 
0.382940 -0.923440 -0.619690 
-0.314450 -0.983010 -0.390980 
-0.449220 -0.300240 -1.302500 
-0.692650 -0.501450 -0.277910 
0.513950 0.296580 -1.628100 
-0.566770 1.112800 -0.768060 
0.158660 -1.241000 -0.601290 
0.089782 -1.462800 -0.269000 
0.453890 0.146470 -1.088000 
0.144670 1.133000 -0.833980 
1.098100 -0.210370 -0.021107 
-0.706900 0.319510 -0.493360 
0.055269 -1.392100 -0.409130 
0.539220 -0.496850 -0.512040 
-0.157210 -1.084200 -1.181900 
-0.919980 0.271480 -1.061500 
0.432150 -1.045000 -0.787940 
-0.882270 0.180510 -0.981460 
1.040300 0.236040 -0.200860 
-0.544600 -0.360970 -0.431430 
-0.589920 0.751760 -0.496520 
0.426010 1.078100 -1.577300 
0.343760 0.654000 -0.705050 
-0.744840 -0.014573 -0.962700 
-0.293310 -0.664920 -0.567790 
-0.173870 -1.328500 -0.224140 
0.624450 -0.225570 -1.270500 
0.582290 -0.376780 -1.029900 
0.609630 -0.190680 -0.971650 
0.461320 1.234900 -0.858840 
0.249440 1.299500 -0.249250 
0.930550 0.650920 -0.292480 
0.439020 -0.930770 -0.050683 
0.543710 -0.811320 -0.182240 
0.735070 -0.108730 -0.327690 
-0.575520 0.759130 -0.754510 
-0.586600 -0.111470 -0.954160 
-0.231310 -0.559350 -0.908340 
0.252390 1.196600 -1.281500 
0.652470 -0.155170 -0.417260 
0.572730 -0.275970 -0.524460 
-0.224700 1.485600 0.040119 
-0.764410 0.591610 -0.517680 
1.024700 -0.137990 -0.044020 
-0.669900 -0.334430 -0.296040 
-0.118840 -0.746170 -0.824220 
0.550920 1.146100 -0.415650 
-0.483120 -1.175200 -0.306870 
-0.562140 0.812180 -0.617070 
0.154670 -1.426000 -0.365320 
0.521100 1.183900 -0.695630 
0.623640 1.179400 -0.268080 
-0.610660 0.817450 -1.259800 
0.081115 -1.635800 -0.060432 
-0.690310 0.048514 -0.368620 
-0.979460 1.328600 0.016479 
0.052755 1.229700 -0.952840 
0.043584 1.341100 -0.843510 
1.071200 -0.583390 0.051672 
0.730200 -0.860030 0.069339 
-0.712380 0.061603 -0.590420 
0.345200 -0.894220 -0.505280 
-0.120380 -0.703350 -1.426100 
-0.188370 1.192700 -0.381410 
0.608910 -0.490920 -1.041200 
-0.698460 0.952020 -1.345400 
-0.852190 1.297700 0.020422 
-0.556960 0.877100 -0.687610 
0.789370 -0.032126 -0.377960 
0.283790 0.792260 -0.971010 
-0.758430 0.201870 -0.734080 
0.190330 -1.081800 -0.761460 
0.365400 0.439390 -0.784710 
0.117040 -1.236500 -1.540300 
-0.041585 -0.932950 -0.969600 
0.548120 -0.431280 -0.733910 
0.230080 -1.339200 -1.102800 
0.493710 0.574570 -1.728000 
0.429870 1.036100 -0.522150 
-0.703850 0.214990 -0.378280 
0.746210 -0.038533 -0.779290 
-0.500200 -0.205000 -0.880410 
0.652940 -0.293300 -1.374400 
-0.095860 -1.108000 -1.610200 
0.713170 1.447400 -0.181950 
0.196370 -1.036200 -0.189030 
0.382270 -0.863290 -0.412210 
0.564670 -0.387040 -0.506870 
-0.736040 0.477420 -1.143400 
0.383940 0.286190 -0.956710 
0.639810 0.223490 -0.415350 
-0.010429 1.429900 -0.801000 
-0.326940 1.283400 -0.814150 
-0.151420 -0.668810 -0.952250 
1.000400 -0.881460 0.087330 
0.052399 1.308300 -1.143900 
-0.721710 0.618980 -0.431680 
-0.700880 1.295300 -0.084885 
-0.284810 -1.077100 -0.393160 
0.456120 1.398200 -0.192600 
-0.496620 -0.632680 -0.382350 
0.626330 -0.346370 -1.239400 
0.289570 -1.281000 -1.050400 
0.624050 -0.758390 -0.783180 
0.642290 0.894290 -0.278540 
-0.596910 0.932850 -1.073800 
-0.709100 0.170050 -0.496390 
0.818260 0.625810 -0.292680 
0.159150 1.238500 -1.255300 
-0.713940 1.218400 -0.283100 
-0.439900 1.619500 0.088937 
-0.675250 0.841990 -0.203500 
0.339880 0.994360 -0.752360 
0.795690 -0.189040 -0.141370 
-0.137880 1.292500 -0.144260 
-0.922300 0.521540 -0.173940 
-0.812130 -0.682990 -0.263680 
0.581910 -0.225040 -0.869240 
0.592100 -0.695190 -0.503380 
0.406290 0.303430 -0.781120 
-0.543850 1.403900 -0.905160 
0.570750 0.756870 -0.347680 
-0.577590 1.298400 -0.930530 
0.309190 0.854930 -1.352500 
-0.675990 0.521760 -1.282900 
0.647620 0.348900 -0.385520 
-0.695610 0.659050 -0.339770 
-0.326980 -0.402870 -1.485900 
0.496330 -1.462900 0.180340 
0.341930 1.237700 -1.435700 
0.655960 0.037104 -1.377900 
0.238180 -1.088700 -0.863870 
-0.340970 -0.714800 -0.483840 
-0.630500 -0.041819 -0.897590 
0.514950 0.153120 -1.556700 
0.621050 0.047942 -1.566000 
0.958440 0.079291 -0.152300 
-0.088213 1.358100 -0.082838 
-0.598730 1.330400 -0.826890 
-0.420970 1.168300 -0.390910 
-0.191880 1.191600 -0.494200 
0.788240 1.341400 -0.195610 
0.506300 0.086605 -1.173900 
-0.660520 1.462200 0.064486 
-0.470970 -0.525000 -0.439390 
0.617850 0.141900 -0.506980 
-0.914150 -0.507020 -0.205640 
0.569430 -0.234480 -0.635900 
-0.384370 -0.507410 -0.558620 
-0.642580 0.957350 -1.267000 
-0.586240 0.949510 -0.345430 
0.053159 -1.314900 -0.470510 
-0.707300 0.543670 -0.962200 
-0.593420 0.973800 -0.980710 
0.021303 -1.281500 -0.351720 
-1.238500 0.256470 0.006236 
0.252790 -1.100500 -0.025420 
-0.200920 -0.597330 -1.079800 
-0.074860 -0.790900 -0.956340 
0.340730 0.427910 -0.962520 
0.076244 1.217400 -0.821180 
0.622800 -0.627480 -0.192880 
0.472400 0.426180 -1.645300 
-0.847610 0.055985 -0.848770 
0.631680 -0.702980 -0.982260 
0.972950 0.480720 -0.295130 
-0.978610 0.235620 -0.030324 
-1.059500 0.714630 0.013440 
0.623880 -0.735230 -0.129700 
-0.469800 1.186300 -0.266950 
-0.139200 -0.919610 -0.602910 
-0.801970 0.339700 -0.238280 
-0.298120 -1.377300 -0.204880 
0.734240 -0.139340 -1.550100 
0.608360 -0.315290 -0.379890 
0.616170 -1.260400 0.155860 
0.737110 -0.077946 -0.650800 
0.666550 -0.140000 -0.873350 
-0.625440 1.210200 -0.759610 
0.874300 0.010044 -0.202920 
-0.631270 1.009500 -1.148200 
0.873000 0.521170 -0.297650 
-0.720510 0.315340 -0.393200 
0.748610 0.857280 -0.257290 
0.714560 0.260410 -0.341640 
-0.423810 1.185300 -0.500590 
0.083997 -1.312100 -0.923210 
-0.594100 0.879890 -1.157000 
-0.986740 0.527710 -0.080239 
0.682580 -0.131320 -0.754680 
-0.883440 -0.336490 -0.156080 
1.066400 -0.422620 0.027236 
0.512100 0.933360 -0.350710 
-0.202530 1.338400 -0.065470 
-0.656070 0.642180 -0.508130 
0.725050 0.150910 -0.375830 
-0.634720 0.697840 -0.416920 
0.842380 0.883520 -0.248320 
0.186000 -1.324000 0.060413 
-0.573850 0.889490 -0.810790 
0.223230 -1.348300 -0.739160 
0.112870 -1.210100 -1.424600 
1.034700 -0.019788 -0.081255 
-0.630300 0.587320 -1.357600 
0.618200 1.069300 -0.252400 
-0.139230 -1.270000 -0.310670 
-0.125560 -1.272500 -1.395900 
0.526950 -0.571410 -0.610480 
0.379170 1.335600 -0.213810 
-0.006930 -1.260900 -1.420000 
-0.651900 0.771180 -0.286340 
0.381330 0.279150 -1.097400 
-0.567620 1.187100 -0.954200 
0.430600 -0.969930 -0.708410 
0.871900 -0.133870 -0.107880 
0.302400 0.938410 -1.200900 
0.416740 0.207580 -1.188000 
-0.074744 -0.775620 -1.174000 
0.733050 0.019800 -1.451000 
0.534900 -0.935680 0.015959 
0.384880 1.039000 -0.965550 
0.230780 -0.975910 -0.262880 
0.709270 -0.591170 -0.065440 
0.143060 -1.260700 -0.386430 
-0.578540 0.840920 -0.905380 
0.744850 -0.049292 -0.896910 
0.103430 -1.203600 -0.492400 
0.340180 -1.025600 -0.724210 
0.710480 -1.079200 0.120710 
0.436150 -1.007400 0.020777 
-0.842200 0.162670 -0.879780 
0.674440 0.715390 -0.305580 
0.355590 1.227000 -1.309200 
0.247550 1.429000 -0.156690 
-0.615590 1.046000 -1.051700 
-0.575650 1.265700 -1.036500 
-0.732390 0.254710 -0.291110 
0.347440 -1.071000 -0.839860 
0.930530 -1.003300 0.100840 
-0.369870 -0.820270 -0.420810 
0.802360 0.451310 -0.307820 
0.324080 1.499400 -0.122750 
0.698520 0.968870 -0.243330 
0.516290 0.722960 -1.711300 
0.500700 0.808040 -0.389760 
-0.060935 -1.215800 -0.396560 
0.762070 -0.085464 -1.413700 
-0.806990 0.381270 -0.342390 
0.403440 1.032900 -0.637840 
-0.420160 1.210400 -0.161460 
-0.471880 1.323000 -0.705090 
0.088587 -1.297300 -1.042300 
-0.098314 1.449700 -0.005122 
-0.785560 0.639140 -0.229040 
0.514030 -1.162600 0.129360 
0.596560 -0.728890 -0.275960 
0.534100 -0.864010 -0.060628 
0.746630 -0.012152 -1.184200 
0.405540 0.380970 -0.701180 
0.719930 -0.477130 -0.106440 
-0.914810 -0.212990 -0.092973 
0.325930 1.183100 -0.494930 
0.684250 -0.448240 -1.235100 
-0.801700 0.085969 -0.770640 
-0.740860 1.350400 0.012848 
0.617190 -0.169510 -0.540570 
0.792280 0.183200 -0.292940 
-0.131750 1.239500 -0.251620 
0.572540 -0.469900 -0.911920 
0.489110 0.144650 -1.464700 
0.449160 1.075400 -1.045600 
0.462010 1.329300 -0.282370 
-0.377410 -1.484100 -0.203930 
-0.823250 0.486640 -0.966850 
-0.041854 -1.000700 -1.191300 
0.694500 -0.768710 0.002746 
-0.169720 -1.216000 -1.317200 
-0.616410 1.263400 -0.393760 
0.385310 1.035400 -0.840120 
-0.704060 -0.034827 -0.262770 
-0.042067 -0.850520 -1.093200 
0.325310 -0.895280 -0.282910 
0.183170 1.385200 -0.262090 
0.593690 1.517100 -0.160850 
0.548620 -0.501680 -0.800450 
0.416930 0.458290 -0.625850 
-0.569840 1.240700 -0.272000 
0.744260 -0.066982 -1.093100 
-0.592090 -0.567200 -0.330460 
-0.576180 1.172600 -0.860760 
0.705430 -0.126060 -1.274800 
0.512890 1.049600 -0.350930 
-0.733330 -0.120500 -0.209560 
0.549900 1.362600 -0.234430 
0.539410 -0.462800 -0.622200 
0.347160 0.990380 -1.331400 
0.128780 -1.315800 -0.041606 
0.834070 -0.777120 0.078153 
-0.147690 -1.211000 -0.753460 
0.710830 -0.191020 -0.238030 
0.336560 0.579220 -0.788320 
-0.361870 1.172900 -0.292430 
0.142320 -1.414600 -0.075143 
0.402560 0.969540 -1.511900 
0.098332 1.335500 -0.580380 
0.131170 1.145600 -0.947690 
0.144750 1.306400 -0.484020 
0.363330 0.793470 -0.585530 
0.043473 -1.199100 -1.328700 
0.358710 0.928070 -0.585360 
-0.035204 1.325400 -0.174400 
-0.556210 -0.691610 -0.337370 
-0.095077 1.247100 -0.496410 
0.241000 1.274400 -1.433900 
-0.386780 -1.259000 -0.271070 
0.544480 -0.948300 -0.710310 
0.950160 0.276020 -0.231100 
0.408190 0.664650 -0.552000 
0.611210 -0.593400 -0.999040 
0.167540 1.724300 -0.044996 
0.953940 -0.077433 -0.086197 
-0.248300 -0.520170 -1.285800 
0.009179 1.381000 -0.574240 
-0.851020 1.396200 0.036882 
-0.157770 -0.641120 -1.510900 
-0.727840 -0.609510 -0.268730 
0.431270 -0.850650 -0.300850 
0.789590 0.070001 -0.368890 
-0.133930 -1.515700 -0.127670 
0.391440 0.275390 -1.292000 
0.447910 1.074600 -1.215000 
-0.249970 -1.576300 -0.151950 
-0.588980 -0.111350 -0.496810 
0.708820 -0.104830 -0.964940 
-0.374290 1.260300 -0.723680 
0.296940 0.942170 -1.106500 
0.468690 0.176860 -0.777920 
0.832040 0.300920 -0.277680 
0.698790 0.598760 -0.321830 
0.386730 -1.549700 0.161130 
0.337880 0.422490 -1.155200 
1.187900 -0.026578 -0.086879 
0.767450 0.736440 -0.278450 
0.361040 0.565980 -1.515800 
-0.020610 -0.922960 -1.269500 
0.224040 -1.173200 -0.957750 
-0.117130 1.287600 -0.627930 
0.839110 1.223200 -0.207930 
-0.530720 -1.078100 -0.326430 
0.001481 1.404300 -0.687220 
-0.083588 1.241500 -0.382910 
-0.979750 -0.100920 -0.031769 
-0.528110 1.455200 0.067093 
0.337130 0.424730 -1.057300 
0.732520 -0.096530 -0.472880 
0.297350 1.148000 -0.962110 
0.447470 1.072700 -1.392200 
0.033455 -1.202200 -0.858020 
0.454680 0.330160 -0.623530 
0.122550 1.226100 -0.623650 
0.342570 0.420790 -1.254800 
-0.423140 1.233600 -0.622530 
0.068075 -1.370600 -0.545400 
0.291120 -1.087600 -0.962320 
-0.555080 -0.122020 -0.610560 
0.609460 -0.732470 -0.689980 
-0.792050 -0.285610 -0.188590 
0.778770 -0.035915 -1.521600 
-0.091110 -1.213900 -0.525270 
0.666540 -0.174250 -1.368200 
0.381940 0.844780 -1.540900 
-0.589710 -0.278380 -1.457600 
-0.974480 0.942130 0.021119 
0.610470 0.577980 -0.367850 
0.279350 1.131500 -0.699230 
0.644920 -0.151510 -0.651400 
-0.578940 1.637300 0.079233 
-1.018100 0.087522 0.000797 
-0.718330 0.306230 -0.692340 
-0.637420 0.636110 -0.675900 
-0.662860 -0.130530 -0.314730 
-0.117660 -1.284200 -1.621100 
-0.744730 0.579120 -0.750800 
-0.589340 0.817190 -0.403050 
0.127280 1.379000 -0.351000 
0.065784 1.367900 -0.492040 
0.138510 -1.079800 -0.611760 
-0.245170 1.196400 -0.289510 
0.420460 1.644900 -0.124730 
-0.001742 1.357200 -1.036400 
-0.775670 -0.414960 -0.227890 
-1.109600 1.067900 0.024118 
-1.067800 0.215070 0.000653 
0.553190 0.439670 -1.705300 
0.563260 -0.575750 -0.884570 
0.167140 -1.408700 -0.499250 
1.110500 -0.081724 -0.056290 
0.171200 1.149700 -1.075100 
-0.527100 1.218200 -0.178370 
-0.200930 1.217600 -0.627210 
0.711360 1.095200 -0.213860 
0.334040 0.565530 -1.414400 
0.547990 1.247200 -0.489220 
-0.533490 -0.137370 -0.729410 
1.008900 -0.265800 -0.010890 
0.112990 -1.086300 -0.475950 
0.931670 -0.531520 0.038834 
-0.353790 1.515700 0.071847 
-0.686270 -0.002240 -0.818360 
0.469970 0.407560 -0.554890 
-0.783120 0.379570 -0.688490 
0.272610 1.226300 -0.322740 
-1.238100 0.692880 0.007351 
-0.633550 0.960040 -0.230970 
-0.035982 1.435500 -0.896360 
0.943160 -0.762430 0.086528 
0.915000 0.773980 -0.273560 
0.119800 1.168600 -0.717060 
-0.878420 0.971150 -0.004458 
0.794370 0.998420 -0.227540 
0.617810 -0.854880 0.001658 
1.170300 0.086219 -0.131100 
0.190930 -0.997870 -0.459380 
0.470470 1.190300 -1.192200 
0.435040 0.927430 -0.440060 
0.658000 -0.957540 0.080575 
-0.073877 -1.272600 -1.300600 
-0.575660 1.343800 -0.728820 
0.615900 -0.470060 -0.264940 
-0.563380 -0.460760 -0.373790 
0.139920 -1.289700 -1.139900 
-0.270590 1.394400 0.000520 
0.553300 -0.350060 -0.615490 
-0.022816 -1.175400 -0.629670 
-0.018747 -1.176500 -0.748760 
0.321470 0.711240 -1.413300 
0.213370 -1.287600 -1.463600 
0.852510 -1.112500 0.114890 
0.489280 0.613440 -0.459050 
0.055845 1.657600 0.006788 
-0.937930 0.363310 -0.097821 
1.168100 -0.293860 -0.011889 
-0.922950 -0.599850 -0.232230 
0.844000 1.084100 -0.218980 
-0.642130 -1.062200 -0.327810 
-0.517360 -0.271110 -1.366100 
0.348760 -1.011700 -0.032175 
-0.588610 -0.805480 -0.321070 
-0.667800 0.017328 -0.505240 
0.389370 1.133400 -1.644400 
0.069872 -1.301900 -0.618010 
0.740950 -1.190700 0.133320 
-1.076500 0.912000 0.030701 
0.416640 0.962360 -1.605800 
0.385760 1.244400 -1.598500 
0.308380 1.152000 -0.847120 
0.136300 -1.537800 -0.021961 
0.461180 -0.872720 -0.505140 
0.336330 0.849100 -1.449500 
0.564790 0.056772 -1.079200 
-0.785750 1.061100 -0.044543 
-0.314320 1.291600 -0.078867 
0.389160 -0.883370 -0.187020 
0.953780 -0.394620 0.011858 
0.569430 -0.301410 -0.956030 
-0.013261 -1.451800 -0.194240 
-0.608990 0.653830 -1.088000 
0.434900 0.840470 -1.628700 
-0.678800 1.142900 -0.487390 
-0.692370 1.073900 -0.204590 
-0.599800 -0.047061 -0.793760 
0.319150 0.566440 -1.312600 
-0.695720 1.104800 -0.308540 
-0.716780 0.728390 -0.213270 
-0.279800 -0.477410 -1.075300 
0.698290 0.049866 -0.949100 
0.141500 -1.058400 -0.290710 
-0.587580 0.715760 -0.989610 
0.293410 0.716510 -1.165200 
0.268040 -1.286000 -1.341600 
0.162930 -1.387800 -0.961050 
0.299440 0.714400 -1.263500 
0.893140 -0.252560 -0.051370 
0.073770 -1.237200 -0.733730 
-0.815580 -0.777170 -0.283980 
-0.983460 -0.308830 -0.114900 
-0.040810 -0.835780 -1.393700 
-0.853240 0.563480 -0.282350 
-0.249240 1.239600 -0.181330 
0.647190 -0.907210 -0.723990 
-0.217780 -0.834350 -0.535870 
0.711040 -0.541550 -1.173000 
-0.192270 -0.954680 -0.507800 
0.558610 -0.399530 -0.846180 
0.356070 -1.417900 0.171960 
-0.653260 -0.054016 -0.375850 
-0.209880 -1.412500 -0.168860 
0.557300 1.310600 -0.328850 
-0.467980 -1.365300 -0.267640 
-0.508720 -0.313940 -0.518110 
-0.858720 0.388600 -0.961260 
0.503780 0.107450 -0.862540 
0.481820 1.192900 -1.069600 
0.192680 -1.299200 -0.461310 
0.146310 1.439300 -0.191980 
0.424350 1.285800 -0.360990 
0.730790 -0.362320 -0.147010 
-0.754470 0.586870 -0.636290 
-0.021560 -0.912280 -1.446700 
0.214100 -1.351700 -0.636130 
0.446830 1.233700 -0.972050 
-0.362370 -0.364070 -1.066800 
0.963070 0.180970 -0.186310 
-0.631060 1.052400 -0.377200 
-0.547030 -0.201790 -0.524080 
-0.827560 0.415620 -0.448730 
-0.819000 0.414770 -0.553840 
-0.620520 0.644360 -0.910850 
0.160050 -1.215300 -1.280700 
-0.551140 -0.117890 -0.840940 
-0.209840 1.255900 -0.721960 
0.583960 -0.689460 -0.889510 
0.293770 0.942470 -0.968530 
0.259130 1.140500 -0.550110 
0.121950 -1.406100 -0.632150 
0.241370 1.184800 -0.411710 
0.088210 -1.154200 -0.411550 
0.309620 0.570040 -1.063700 
0.334910 0.503650 -0.874010 
-0.890160 -0.067385 -0.062028 
-0.222750 -0.674800 -0.668570 
0.551180 -0.313700 -0.726790 
-0.605670 0.688110 -0.588520 
-0.602050 -0.271980 -0.382550 
-0.394800 1.414400 0.038676 
-0.693760 -0.056720 -1.031500 
0.698060 -0.392650 -1.315400 
0.736620 0.029938 -0.630560 
0.117420 1.204900 -1.133800 
-0.703220 0.020149 -0.703730 
0.522310 0.135020 -0.695850 
0.871730 -0.651230 0.054555 
0.115770 -1.127200 -0.216320 
-0.607480 -0.049653 -0.569020 
-0.506670 1.369400 0.032247 
0.697670 0.481000 -0.341070 
0.390060 1.040100 -1.138400 
0.648810 -0.523480 -0.173440 
0.717410 1.221700 -0.198070 
0.434940 0.207040 -1.381400 
-0.841010 0.021327 -0.088119 
-1.066300 -0.064528 -0.007162 
0.599220 -0.276920 -1.171500 
-0.121900 1.618800 0.051300 
-0.565020 1.074800 -0.911270 
0.431670 0.570900 -1.654200 
-0.744420 0.288980 -0.786330 
-0.867700 0.415630 -0.276600 
0.391240 1.248300 -0.446140 
0.275280 -0.923740 -0.362320 
-0.026788 -0.979880 -1.547000 
-0.668020 1.196000 -0.581660 
0.589930 -0.575220 -0.277250 
0.119200 1.576300 -0.028039 
-0.881160 0.373940 -1.053100 
-0.602350 1.158600 -1.063800 
0.043751 1.257400 -1.052800 
0.586940 -0.202090 -0.747980 
0.441480 1.183300 -1.405700 
0.373830 -1.221100 0.126620 
0.555210 -0.587130 -0.408590 
-0.089918 -1.198400 -0.828950 
0.572570 0.317930 -0.458870 
0.819690 -0.308660 -0.078993 
-0.042629 1.294100 -0.288040 
-0.760670 0.103810 -0.669740 
0.612580 0.456480 -0.392160 
-0.230420 -1.080400 -0.480660 
0.690590 0.056934 -0.788860 
0.460890 0.738960 -0.450420 
-0.058401 -1.293700 -1.519900 
0.000171 -1.228000 -1.051600 
0.704530 0.043623 -1.071100 
-0.862880 0.464150 -0.371800 
-1.054300 0.475550 -0.031347 
-0.829170 1.493300 0.035838 
0.222370 1.528600 -0.090595 
-0.310150 -0.430320 -0.987460 
0.088469 -1.171700 -0.297960 
-0.547480 1.000400 -0.725720 
-0.589270 -0.156110 -1.039500 
-0.674590 -0.187180 -1.258400 
0.349570 1.266500 -0.278770 
0.246710 -1.342600 -0.944890 
0.563420 0.081125 -0.780280 
-0.488880 -0.940610 -0.345780 
-0.958040 0.746870 -0.010546 
0.493790 -0.846530 -0.387630 
0.458430 0.901690 -1.707000 
-0.136520 1.342000 -0.720960 
-0.613000 -0.033194 -0.664040 
-0.030390 -1.528200 -0.129690 
0.129350 -1.131500 -0.692450 
0.295380 0.860080 -1.255300 
-0.553330 1.545700 0.081320 
0.722370 0.090466 -0.480230 
0.177710 1.135900 -0.649450 
0.010553 -1.205400 -0.460650 
0.035916 1.372500 -0.288650 
-0.079852 -0.764190 -1.518000 
0.179910 1.320600 -1.353000 
0.886950 -0.888560 0.102870 
-1.180600 0.878190 0.022051 
0.362970 -0.940090 -0.107340 
1.048700 0.330580 -0.251860 
-0.337640 -0.399770 -1.278000 
0.462540 0.140950 -1.275300 
0.553960 -0.664690 -0.780220 
-1.021000 0.354760 -0.036243 
0.611750 -1.364400 0.167270 
-0.056911 -0.998760 -1.064200 
0.158230 -1.421400 -0.192290 
0.353280 0.419880 -1.355800 
0.693960 1.345100 -0.185950 
0.291240 1.693200 -0.087821 
-0.303110 -0.454850 -0.860680 
-0.284530 -1.487200 -0.164920 
-0.617230 0.664380 -1.278000 
0.085076 -1.369700 -0.723910 
0.642650 0.046084 -1.203400 
-0.513590 1.263800 -0.517010 
0.381350 1.010000 -1.681400 
-0.267610 1.723300 0.072895 
-0.611490 -0.143860 -0.409870 
0.005785 1.571400 0.014242 
-0.193400 1.363200 -0.806800 
0.732050 0.377620 -0.332760 
-0.361370 -1.151700 -0.320710 
-0.225680 -1.157400 -0.601330 
-0.417100 1.332000 -0.786950 
0.453880 0.155430 -0.950840 
0.368440 0.362320 -0.869280 
0.816450 -1.001000 0.113440 
-0.539720 1.265100 -0.067952 
0.547390 -1.022900 0.075315 
0.984680 -0.626550 0.064294 
0.545520 -0.888670 -0.573100 
0.594100 -0.680260 -0.357180 
0.535330 0.431300 -0.463900 
0.566160 -0.666000 -0.593730 
0.530600 -0.593690 -0.708350 
0.833730 0.039835 -0.287630 
-0.018136 1.333000 -0.372640 
0.888180 0.112390 -0.215200 
0.631480 0.078144 -0.704660 
0.877680 0.212310 -0.234660 
0.453140 0.252840 -0.698060 
0.398180 0.711970 -1.608700 
0.393830 0.860970 -0.511190 
-0.615760 1.273600 -0.505160 
-0.032570 1.345600 -0.487010 
0.054075 1.414500 -0.152550 
-0.512660 1.386500 -0.796500 
-0.699820 1.202900 -0.402450 
-0.747580 1.140900 -0.148500 
-0.561190 1.008700 -0.840850 
-0.809540 0.464940 -1.063800 
-0.850580 0.398130 -1.150000 
-0.597810 -0.206590 -1.152500 
-0.570840 -0.238750 -1.260500 
-0.597590 -0.900420 -0.322200 
-0.275870 -0.881420 -0.457670 
-0.241660 -0.596910 -0.744020 
0.292640 -0.954580 -0.178070 
