0.310350 0.568460 -1.162100 
0.213370 -1.287600 -1.463600 
-0.695110 0.607770 -0.637240 
0.554730 -0.447640 -0.806910 
0.123190 -1.348400 -1.029100 
0.616760 0.275090 -0.425050 
-0.543760 -0.599860 -0.356410 
0.147450 -1.394900 -0.108340 
-0.247800 -1.210400 -0.443490 
-0.748720 0.355780 -0.403130 
-1.228300 0.413680 0.000858 
-0.587090 1.328200 -1.028700 
-0.418780 -0.350860 -0.684180 
-0.808420 0.016372 -0.862050 
-0.722760 -0.449870 -0.260110 
0.292640 -0.954580 -0.178070 
0.563730 -0.407420 -0.882920 
-1.020100 0.704260 0.001875 
0.299690 0.643310 -1.115400 
0.550400 0.307610 -0.487680 
-0.561950 1.576100 0.081928 
-0.698300 0.219550 -0.438960 
0.574910 -0.779270 -0.339920 
-0.678360 0.022341 -0.590890 
-0.175270 -1.189300 -1.060400 
0.391850 -0.931660 -0.639490 
0.831800 0.457850 -0.301510 
0.461320 1.234900 -0.858840 
0.233820 1.121700 -0.656830 
-0.575750 0.780740 -0.952170 
-0.882270 0.180510 -0.981460 
-0.788470 0.537590 -0.847610 
0.569620 -1.041600 0.090083 
0.579340 0.046132 -1.345400 
-0.475040 -1.081500 -0.325940 
0.267300 -1.021300 -0.102360 
0.312160 1.204200 -1.236600 
0.294710 -0.990640 -0.640600 
-0.733050 1.250400 -0.135170 
-0.761980 -0.049822 -1.071000 
0.139920 -1.289700 -1.139900 
0.375210 0.366170 -0.825560 
0.372810 0.347180 -1.349300 
-0.097117 -1.101600 -1.479500 
0.841410 0.354090 -0.286800 
-0.683410 1.519000 0.066769 
-0.139280 -1.551200 -0.123990 
-0.388870 -0.346110 -1.272000 
-0.744840 -0.014573 -0.962700 
0.431250 0.353100 -1.549900 
0.142310 1.175900 -0.612940 
-0.771640 0.518400 -0.950940 
0.715420 0.027186 -1.321600 
0.308890 -1.063400 -0.013515 
0.753810 -0.061252 -0.532400 
0.864550 0.956640 -0.237960 
0.361880 -1.071800 -0.869430 
-0.123730 -0.909690 -0.637960 
0.387700 0.447940 -0.702570 
0.581630 -0.239630 -0.947700 
-0.332530 -0.405360 -1.196100 
0.568320 0.630590 -0.382900 
-0.553920 1.324500 0.001373 
-0.566480 0.811420 -0.530960 
0.553450 -0.331210 -0.805980 
-1.044300 0.078594 0.006753 
0.744680 0.039035 -0.553790 
-0.233290 -1.179000 -0.537200 
-0.675690 -1.006100 -0.324230 
0.493580 1.125500 -0.806810 
-0.471730 1.284100 -0.639020 
-0.582010 1.291900 -0.904600 
0.595310 0.237670 -1.684600 
0.818570 -0.051152 -0.244650 
0.871730 -0.651230 0.054555 
0.746630 -0.012152 -1.184200 
0.321740 0.496160 -1.109500 
-0.637670 -0.021384 -0.518500 
0.431270 0.280790 -1.490900 
0.645550 -0.159540 -1.143300 
-0.135930 -1.091900 -1.267500 
0.118980 1.601900 -0.019956 
0.262100 1.210800 -0.351250 
-0.610590 0.689170 -0.545540 
-0.713600 0.262960 -0.352260 
-0.849790 1.087000 -0.003806 
-0.634500 0.636530 -0.716850 
-0.624370 0.736020 -1.375700 
0.259130 1.140500 -0.550110 
-0.150610 1.392600 -0.031277 
-0.270870 1.287400 -0.818260 
-0.241660 -0.596910 -0.744020 
0.640800 -1.102400 0.121470 
0.474100 1.300700 -0.392580 
0.201720 -1.277300 -1.214200 
-0.566120 1.250700 -0.985510 
-1.045000 0.533920 -0.031580 
0.841240 -0.438440 -0.022956 
-0.183540 -1.077000 -1.052600 
-0.120860 -0.707340 -1.296200 
0.287540 -1.040800 -0.729750 
0.091875 1.297400 -1.202600 
-0.729680 0.984110 -0.096062 
0.141500 -1.058400 -0.290710 
-0.559840 -0.299600 -0.436990 
0.418790 1.223900 -1.254200 
-0.427380 -0.473100 -0.522080 
-0.426110 -0.558330 -0.471510 
-0.750550 -0.127020 -1.231000 
-0.781490 0.385480 -0.480360 
0.284170 0.791350 -1.065800 
0.196480 -1.237500 -0.833630 
-0.222220 -1.260200 -0.376430 
0.306810 -1.168500 -1.111200 
0.505920 -0.909390 -0.627940 
-0.605380 1.218000 -0.817800 
-0.487050 1.274400 -0.046432 
0.522400 -0.870820 -0.508430 
0.371840 0.587590 -0.664980 
0.343960 -1.260900 -1.227500 
0.747260 -0.034727 -0.740150 
0.759370 1.177700 -0.197920 
-0.767150 0.745800 -0.141200 
0.350600 1.227400 -1.351200 
0.385950 1.040000 -1.008200 
-0.645000 -0.867010 -0.312300 
0.674730 0.901430 -0.265240 
0.162930 1.131700 -0.722240 
-0.460790 -0.254570 -0.864510 
0.201110 1.113600 -0.844790 
0.816250 1.283600 -0.201760 
0.384840 1.235600 -1.554600 
-0.809470 0.101950 -0.124480 
0.283790 0.792260 -0.971010 
0.170120 -1.238000 -0.704340 
0.137470 -1.456600 -0.235750 
0.058569 -1.384600 -0.442410 
-0.165000 -0.647530 -1.249800 
0.513990 0.505740 -1.720900 
-0.579180 -0.075543 -0.623830 
-1.098100 0.208200 0.006507 
-0.315770 -0.500750 -0.701660 
0.494620 -0.961430 -0.728370 
0.281020 -1.285700 -1.020600 
0.130790 -1.486800 -0.068375 
0.052755 1.229700 -0.952840 
0.337440 0.492720 -1.360500 
-0.572390 -1.049500 -0.327620 
0.596900 0.513010 -0.391100 
-0.043806 -0.853080 -1.049700 
0.674960 -0.545460 -1.127300 
0.420030 1.260500 -0.539390 
-0.432860 -1.173600 -0.300640 
0.336330 0.849100 -1.449500 
0.570910 0.094590 -0.698220 
-1.082500 1.133500 0.021726 
0.092313 1.175200 -0.897040 
0.539700 -0.810260 -0.210410 
-0.084176 -1.198100 -0.753620 
-0.125410 -0.753980 -0.783090 
0.613310 0.702560 -0.335990 
0.771480 0.282400 -0.304720 
0.010959 1.517000 -0.005045 
0.533160 0.084197 -1.450000 
-0.294250 -1.204500 -0.357530 
-0.617240 -0.029074 -0.696230 
0.366100 0.979110 -1.423500 
0.393530 0.348700 -1.450500 
0.148750 -1.414500 0.007314 
0.354430 1.205600 -0.568520 
-0.843110 0.122720 -0.834880 
-0.744860 1.096600 -0.108710 
-0.826980 0.408810 -0.727810 
0.448870 1.184000 -1.362100 
-0.338780 -0.398140 -1.360300 
-0.539750 -0.235310 -1.144800 
-1.119900 0.667400 0.015730 
0.092106 -1.664900 -0.058512 
0.478590 0.269190 -0.621710 
-0.027678 1.398300 -1.012900 
0.390320 1.238200 -0.946760 
-0.662900 -0.553340 -0.292440 
-0.673760 1.143200 -1.249800 
-1.141600 0.121350 0.014331 
0.475790 0.184060 -0.736750 
0.744700 -0.052873 -0.936140 
0.714880 -0.385860 -1.344300 
-0.244520 -1.543200 -0.149580 
-0.934840 0.927440 0.009986 
-0.858720 0.388600 -0.961260 
0.044688 1.276800 -0.876570 
0.549880 1.578600 -0.152920 
-0.569840 1.240700 -0.272000 
-0.604800 -0.658470 -0.316250 
-0.361790 1.188700 -0.235800 
-0.177270 -1.198300 -1.188200 
0.051989 -1.250100 -1.046800 
-0.272620 -0.462540 -1.536700 
-0.028893 -1.258100 -0.315730 
0.449260 -0.863580 -0.458030 
-0.109480 -1.042400 -1.122700 
-0.154610 -1.203300 -0.826270 
-1.035500 0.897770 0.028185 
0.493160 0.221730 -1.572800 
-0.847320 0.462520 -0.478630 
-0.986560 1.158200 0.026734 
0.193720 -1.504000 0.069344 
0.331570 1.528000 -0.115990 
-0.190910 1.238400 -0.213790 
0.620830 -0.494320 -1.071500 
0.141320 -1.266600 -0.349730 
-0.452430 -0.301740 -1.342700 
0.602080 0.946700 -0.284080 
0.810720 -1.163500 0.123040 
0.448180 0.496850 -1.650900 
0.589050 0.822480 -0.321040 
0.515780 1.184700 -0.730770 
1.063100 0.089467 -0.122380 
-0.682290 1.029000 -0.162120 
-0.073496 -0.786860 -1.000500 
0.589030 1.063300 -0.272520 
0.308200 0.783040 -1.359100 
-0.323990 -0.697550 -0.509810 
-0.025881 1.337500 -0.430340 
-1.056900 -0.259620 -0.083295 
-0.640280 1.090300 -0.505670 
0.181730 -1.003700 -0.360360 
-0.037278 -0.932050 -1.012200 
-0.252820 -0.997600 -0.429590 
-0.706900 0.319510 -0.493360 
-0.250260 1.632000 0.075174 
-0.237880 -0.541660 -1.035900 
-0.103980 -1.202200 -0.942590 
-0.850360 -0.117970 -0.097859 
0.071230 1.374800 -0.406110 
0.319040 0.928270 -1.343400 
-1.221100 0.755360 0.012737 
-0.644670 1.019300 -1.210300 
-0.202790 -1.140600 -0.975250 
-0.756920 1.280400 -0.051537 
-0.188530 1.208600 -0.296430 
0.190900 1.294200 -0.348210 
0.698290 0.049866 -0.949100 
0.382430 0.277670 -1.145500 
-0.624920 0.694080 -0.459620 
-0.314640 -0.424040 -1.029900 
0.393030 1.032900 -0.717680 
-0.612410 -0.210980 -1.189800 
-0.744730 0.579120 -0.750800 
0.067686 -1.249500 -0.888830 
0.605730 1.345200 -0.225440 
-0.195530 1.282000 -0.135930 
0.179270 1.373100 -0.288360 
0.262770 1.476600 -0.124800 
0.287150 0.865910 -0.879050 
0.490340 -0.842920 -0.361620 
-0.676790 0.519460 -1.221300 
0.079407 -1.310300 -0.807290 
-0.727400 0.468630 -1.294000 
-0.209840 1.255900 -0.721960 
0.299440 0.714400 -1.263500 
-0.419600 1.528600 0.080189 
0.269670 -1.215200 0.076250 
-0.706200 0.316590 -0.593860 
0.178020 -1.392000 -0.293060 
0.189720 -1.303600 -0.426030 
0.393970 0.493940 -1.562100 
-0.852580 0.714210 -0.082493 
-0.737240 1.181100 -0.207950 
0.428140 0.206230 -1.332600 
-0.331400 -1.255200 -0.288750 
0.554530 -0.569330 -0.853380 
0.196370 -1.036200 -0.189030 
-0.604260 1.324100 -0.801750 
-1.252100 0.628560 0.002235 
-0.593930 0.696610 -0.798360 
0.539230 -1.185900 0.139820 
-0.363410 -0.476420 -0.625150 
-0.189570 1.189500 -0.438170 
0.646960 -0.197730 -0.350060 
-0.196260 -0.579760 -1.505300 
-0.792980 -0.023202 -0.133940 
0.577320 -0.315780 -1.030700 
0.219810 -1.361500 -1.030800 
0.833730 0.039835 -0.287630 
0.666400 -0.821530 -0.816250 
-0.371500 -1.457200 -0.203650 
-0.423240 1.239200 -0.107940 
0.742600 -0.944910 0.098548 
1.106100 -0.597570 0.048120 
0.633380 -0.469520 -0.231290 
-0.651800 1.144200 -0.580240 
0.593730 -0.264930 -0.443610 
0.166280 -1.351200 -0.213220 
-0.844220 0.606940 -0.200920 
-0.018525 -0.917430 -1.357800 
0.415840 0.309270 -0.739800 
-0.437590 -0.284700 -0.962890 
-0.973710 0.170950 -0.021963 
0.606120 -0.420230 -0.328310 
-0.521550 -0.197030 -0.959530 
-0.589270 -0.156110 -1.039500 
-0.617430 0.646080 -0.947630 
1.002200 -0.797170 0.083838 
-0.173060 -1.461300 -0.144990 
-0.839580 0.415650 -0.379170 
-0.178380 1.581700 0.058330 
0.561950 1.470900 -0.162950 
-0.013932 1.332500 -0.343560 
-0.648890 0.585070 -1.007600 
-1.026600 -0.402180 -0.151600 
0.157850 -1.420500 -0.398490 
0.402360 -0.977190 -0.026933 
-1.122400 -0.140900 -0.032805 
-0.203510 -0.593970 -1.121800 
0.754130 1.396100 -0.189130 
-0.599200 1.098200 -0.636380 
-0.945070 0.310850 -1.169400 
0.706100 -0.107610 -1.003800 
-0.647420 -0.046265 -0.403310 
0.289110 -1.120500 -1.035200 
0.419230 1.250500 -0.762750 
0.401250 1.029200 -1.362200 
-1.150400 0.546310 0.006080 
0.341660 0.994690 -1.285000 
0.114810 -1.232300 -1.501200 
-0.350070 -0.801680 -0.440110 
0.018239 -1.216700 -0.974070 
-0.561670 -0.089490 -0.749740 
-0.173010 -1.210200 -1.274100 
-0.541520 -0.837910 -0.335830 
0.391240 1.248300 -0.446140 
0.273440 1.126500 -0.735790 
0.299430 0.940670 -1.153600 
-0.665820 0.522650 -1.343500 
0.752330 -1.032100 0.115570 
-0.780490 0.152410 -0.721090 
0.330760 0.998220 -0.837120 
0.171090 -1.219600 -1.395100 
0.208510 -1.045900 -0.682760 
0.277580 -0.934140 -0.270670 
-0.340670 -0.423080 -0.774830 
-0.690240 -0.144980 -1.168800 
0.170630 1.292200 -1.320600 
-0.176360 -1.063000 -0.722650 
-0.090090 1.470800 -0.917090 
0.661220 -0.292970 -1.406600 
-0.740690 0.110430 -0.616060 
-0.142910 1.218400 -0.534740 
0.377160 -0.862450 -0.357950 
0.593390 -0.699550 -0.531540 
0.683480 -0.361200 -0.212480 
0.743010 -0.089710 -0.433230 
0.636240 0.054835 -1.033700 
-0.760600 0.590200 -0.557550 
0.811680 0.874490 -0.249250 
-0.345110 -0.383640 -0.940010 
0.474560 1.191600 -1.150900 
0.735690 0.011633 -0.865060 
0.276820 -1.435400 0.140840 
-0.231310 -0.559350 -0.908340 
0.729140 -0.135610 -1.511300 
0.793830 -0.555010 -0.011390 
-0.470200 1.238100 -0.543880 
0.668280 -0.819830 0.013870 
0.239640 1.281100 -0.274000 
0.167540 1.724300 -0.044996 
0.789590 0.070001 -0.368890 
-0.588980 -0.111350 -0.496810 
0.300350 0.791940 -0.790380 
0.752970 0.006849 -1.585900 
0.783040 -0.820610 0.075458 
0.549080 -0.365890 -0.693770 
-1.018300 1.265100 0.016750 
0.669160 0.177730 -0.408220 
-0.081067 1.247600 -0.324940 
-0.562060 0.880400 -0.729240 
0.624060 -0.311780 -0.341780 
-0.380190 1.338800 -0.012585 
0.129350 -1.131500 -0.692450 
1.170300 0.086219 -0.131100 
0.601200 -0.181240 -0.623780 
-0.367650 -0.575700 -0.532480 
-0.423600 -0.717750 -0.413990 
0.621050 0.047942 -1.566000 
0.517010 1.402600 -0.196690 
-0.661050 1.327100 -0.030171 
-0.936730 -0.521720 -0.207050 
0.567400 -0.672210 -0.622520 
-0.620230 0.760930 -0.368540 
0.066410 -1.303000 -0.580570 
-0.186140 -1.354200 -0.201810 
-0.174000 -0.875370 -0.565120 
0.633020 -0.161760 -0.733350 
0.660380 -0.751150 -0.046520 
-0.294220 1.530300 0.067616 
0.364090 0.989380 -0.628930 
0.249120 1.119600 -0.925730 
-0.276230 -1.456400 -0.168100 
0.924320 -0.320790 -0.017251 
0.287860 0.789320 -1.162700 
0.232420 -0.960010 -0.422510 
-0.593110 1.459900 0.067287 
0.316460 -1.287800 -1.304800 
1.168100 -0.293860 -0.011889 
0.790600 -0.246760 -0.123150 
0.375770 0.778720 -1.553400 
0.536130 0.230120 -0.547660 
0.746980 -0.077940 -1.251100 
0.414410 -0.908480 -0.103160 
0.681850 -0.248690 -0.252160 
-1.032800 1.034300 0.029254 
0.783710 0.008742 -0.431690 
-0.633420 0.829820 -0.280130 
0.334040 0.565530 -1.414400 
-0.658090 1.243800 -0.516060 
0.389160 -0.883370 -0.187020 
0.474260 1.130400 -1.247600 
-0.578800 0.795290 -1.060700 
-0.575420 0.755720 -0.712280 
-0.363990 -0.887780 -0.402790 
0.196760 -1.396300 -0.776550 
0.690150 0.059232 -0.749210 
0.627350 -0.164310 -0.499150 
0.857710 1.160700 -0.214480 
-0.749860 -0.258990 -0.214960 
0.522910 0.792080 -1.705200 
-0.569180 1.138500 -0.969370 
0.167970 1.522700 -0.081141 
0.686330 0.656450 -0.314560 
0.039986 -1.257800 -0.422670 
0.626020 -0.769240 -0.627850 
-0.224700 1.485600 0.040119 
0.143890 -1.039900 -0.432910 
0.151420 -1.276700 -0.000145 
0.963070 0.180970 -0.186310 
0.604780 0.131000 -0.543060 
0.572600 -0.329890 -0.497000 
0.157700 -1.126600 -0.784010 
0.735070 -0.108730 -0.327690 
0.051177 1.339900 -0.815240 
0.379170 1.335600 -0.213810 
-0.601950 0.688040 -0.631360 
0.756930 -0.083573 -1.372400 
-0.724710 0.202990 -0.290010 
-0.119900 -0.702730 -1.470300 
0.158660 -1.241000 -0.601290 
-0.563630 1.001500 -0.492520 
-0.589710 -0.278380 -1.457600 
0.598990 -0.863480 -0.590430 
0.561170 -0.259030 -0.759020 
0.642380 -1.190400 0.141250 
-0.140910 -1.168500 -1.621500 
-0.512020 1.244700 -0.464040 
0.900410 0.017469 -0.174280 
-0.636740 0.583160 -1.172300 
0.697630 -0.496880 -1.205400 
0.421930 0.227680 -0.864610 
-1.056200 0.414550 -0.027442 
0.589510 1.164600 -0.322680 
-0.250940 1.183800 -0.538850 
-0.177330 -0.716570 -0.704830 
0.448630 1.075300 -1.172000 
0.427620 0.644620 -1.654800 
-0.157380 -1.157500 -1.360400 
0.392880 0.926740 -0.509670 
-0.750570 0.342470 -0.744650 
0.509570 0.992730 -0.346470 
-0.534260 -0.510740 -0.384720 
0.160050 -1.036100 -0.533380 
0.643470 -0.595710 -1.049600 
1.065100 -0.140990 -0.038885 
-0.128850 -1.268400 -1.352200 
0.518310 1.130100 -0.551850 
-1.042100 -0.056750 -0.007563 
-0.839000 0.513500 -0.573820 
0.462530 0.573440 -1.692100 
-0.589830 0.808910 -1.163400 
0.465610 0.608300 -0.488800 
-0.931640 1.282700 0.027519 
-0.578480 -1.171100 -0.324170 
-0.033290 -1.557800 -0.114990 
0.598620 -0.387920 -1.099200 
0.664910 1.495000 -0.173710 
0.545220 -0.650500 -0.722350 
0.353360 1.412500 -0.160270 
-0.129560 -1.037400 -0.996330 
0.505380 1.285300 -0.473600 
0.602870 0.392400 -0.412240 
-0.778460 0.323960 -0.841120 
0.332240 0.652070 -0.746660 
0.401100 -1.060100 0.042520 
-0.112370 1.276600 -0.602880 
-0.023894 -1.651700 -0.100450 
-0.935650 0.800890 -0.007688 
-0.024831 -0.899830 -1.577300 
-0.250730 -1.293600 -0.286880 
-0.004773 -1.267500 -1.462000 
-0.436160 -0.808420 -0.385300 
-0.152490 -0.680600 -0.866230 
0.428680 1.135900 -1.560300 
0.237360 -1.234300 -0.947780 
-0.528860 -0.744440 -0.346150 
0.506060 -0.988220 0.039872 
1.149900 -0.023977 -0.080202 
-0.791880 1.174900 -0.060965 
-0.618890 0.889890 -1.253200 
-0.644050 -0.043038 -0.931930 
-0.935010 1.388500 0.019379 
-0.362350 1.167500 -0.320920 
-0.264730 -0.798790 -0.509920 
0.670250 0.034412 -1.465900 
-0.230420 -1.080400 -0.480660 
1.130900 0.187180 -0.180500 
0.349060 1.614300 -0.106480 
0.341810 0.506090 -0.829790 
-0.092422 -0.952720 -0.725670 
0.695800 -0.473700 -0.135830 
0.288350 1.170200 -0.450540 
0.219120 -1.251600 -1.321500 
0.694590 0.781920 -0.284300 
0.120120 -1.297100 -0.077738 
-0.020194 -1.174300 -0.669610 
-0.858610 0.900320 -0.024307 
0.106700 1.471600 -0.113660 
0.294790 0.941420 -0.923660 
0.359610 0.356280 -0.959670 
0.054075 1.414500 -0.152550 
-0.608380 -0.044139 -0.828460 
0.067181 -1.578300 -0.080593 
0.554480 -1.414500 0.176200 
0.489160 0.346530 -0.553550 
0.309620 0.570040 -1.063700 
-0.666470 1.245500 -0.401120 
-0.484980 -0.457120 -0.457090 
0.290170 0.718490 -1.019200 
0.597220 -0.725000 -0.833820 
0.138510 -1.079800 -0.611760 
-0.079984 -1.353200 -0.203000 
-0.544320 0.938980 -0.586670 
-0.391770 1.697900 0.084826 
0.106190 -1.098400 -0.366940 
0.458760 1.075300 -0.611410 
0.513950 0.296580 -1.628100 
0.616410 -0.745030 -0.737670 
0.593680 -0.271510 -1.135500 
0.350250 -1.197800 0.106710 
-0.521360 -1.272900 -0.303330 
-0.088213 1.358100 -0.082838 
-0.547480 1.000400 -0.725720 
-0.010429 1.429900 -0.801000 
0.085076 -1.369700 -0.723910 
-0.714370 0.616230 -0.473140 
0.397510 1.191100 -1.628400 
-0.453380 -0.317780 -1.463100 
-0.025575 -0.983750 -1.502900 
-0.131480 1.327100 -0.698790 
-0.824730 0.301440 -0.930580 
-0.831580 1.278000 0.006359 
-0.214700 -0.753830 -0.598990 
0.700210 -0.119230 -0.633970 
-0.570840 -0.238750 -1.260500 
-0.437670 -1.265500 -0.273480 
-0.956690 -0.092889 -0.036964 
0.951330 -0.612330 0.059890 
-0.230100 -0.916800 -0.478130 
0.358100 0.492610 -1.462600 
0.170420 -1.406200 -0.533200 
-0.199780 1.379200 -0.824210 
0.465710 -1.118700 0.101180 
0.568390 1.193500 -0.460820 
0.732050 0.377620 -0.332760 
0.639950 0.089626 -0.625600 
-0.871360 0.139520 -0.074865 
-0.937750 0.267240 -1.085600 
-0.270590 1.394400 0.000520 
0.332800 1.179700 -0.667690 
-0.052269 -1.204500 -0.433700 
0.169620 1.263900 -0.435320 
0.773180 -0.030961 -1.477200 
0.138380 1.299500 -0.513740 
0.282940 0.867100 -1.015900 
-0.053057 1.566000 0.029129 
0.062349 1.368400 -0.550060 
0.434340 0.393380 -0.624870 
-0.240020 -0.517260 -1.455300 
-0.570890 1.177000 -0.892080 
-0.742300 -0.061265 -0.195980 
0.439040 1.232200 -1.050400 
0.340470 1.248900 -1.477600 
0.346950 0.420210 -1.305100 
-0.672280 1.252400 -0.314970 
0.388770 1.040700 -1.094600 
0.676730 -0.175570 -1.442500 
-0.934230 0.049152 -0.028217 
-0.770220 0.039352 -0.773710 
0.408190 0.664650 -0.552000 
0.244150 -1.123900 -0.958090 
0.034793 -1.342300 -0.366800 
-0.042783 -0.834420 -1.436900 
-0.804240 0.554390 -0.665150 
-0.867700 0.415630 -0.276600 
0.464070 1.559000 -0.140570 
-0.971980 0.634110 -0.041746 
-0.450270 -0.898970 -0.363480 
-0.168870 -0.992860 -0.550630 
-0.694170 -0.026717 -0.287170 
-0.080732 1.268800 -0.238670 
0.618780 -0.222200 -1.234400 
-0.686860 1.144000 -0.456310 
-0.061746 -1.440900 -0.164060 
0.285540 0.865520 -1.110400 
-1.176400 0.033116 0.006078 
0.771580 0.556680 -0.308250 
0.473460 0.476830 -0.522890 
-0.702070 0.221080 -0.530450 
0.908570 0.837460 -0.261940 
-0.269130 -0.520420 -0.822630 
-0.212000 -1.100200 -0.586960 
-0.038834 -0.839200 -1.307600 
0.158390 1.215200 -1.221200 
-0.153200 -1.026200 -0.634650 
0.392450 1.037100 -1.226900 
-0.088343 1.241300 -0.440260 
0.071800 -1.233500 -0.654890 
-0.670360 -0.002142 -0.758820 
0.672040 1.141800 -0.219660 
0.330400 -0.887240 -0.426250 
-0.467670 -0.272110 -1.086300 
0.088469 -1.171700 -0.297960 
-0.374970 1.305400 -0.808160 
0.222900 1.148800 -1.121000 
0.402110 0.796390 -0.512860 
-0.369820 1.179400 -0.539700 
0.767690 0.172450 -0.318180 
0.149870 -1.248000 -0.495110 
-0.719590 1.161600 -0.300580 
0.408150 0.951320 -1.701700 
-0.741110 0.625560 -0.349110 
0.598960 0.198540 -0.475700 
0.472220 0.141070 -1.370000 
0.550270 -0.828320 -0.426370 
0.859020 0.575570 -0.296030 
-0.568030 0.877400 -0.435340 
0.349570 1.266500 -0.278770 
-1.134600 1.003400 0.025318 
0.663890 -0.399800 -1.257800 
-0.523610 1.350300 -0.712750 
0.568170 1.316900 -0.301140 
-0.077636 -0.795610 -0.912450 
0.181200 -1.401900 -0.636260 
0.501420 0.095236 -0.993730 
0.744260 -0.066982 -1.093100 
-0.688810 0.526360 -1.060500 
-0.814600 0.473090 -1.032400 
0.585860 -0.921840 -0.669140 
-0.371850 -0.357610 -1.519000 
0.383530 -1.447400 0.177780 
0.559070 -0.289510 -0.605820 
-0.157210 -1.084200 -1.181900 
0.499800 0.648510 -1.722100 
0.600000 -0.782020 -0.113890 
-0.844840 -0.462000 -0.209200 
-0.629970 0.818130 -1.319400 
-0.786410 -0.152330 -0.157000 
0.431250 1.473500 -0.152780 
0.722650 1.292100 -0.189470 
0.560430 0.066938 -0.906660 
-1.219100 0.178170 0.009744 
-0.855660 0.325320 -0.150240 
-1.045300 0.287670 -0.015085 
0.857760 0.758860 -0.271150 
0.418810 0.528990 -0.590070 
0.081296 1.396800 -0.294660 
-0.198580 -1.176300 -0.747820 
0.233120 -1.345400 -0.841770 
0.306210 -1.270800 -1.109800 
-0.940690 0.574540 -0.105760 
-0.585930 0.906640 -0.927950 
-0.781000 -0.573310 -0.249180 
0.532830 1.183600 -0.626520 
0.330700 1.196700 -1.074200 
0.991030 -0.403120 0.021054 
0.580200 -0.476190 -0.945440 
0.391440 0.275390 -1.292000 
-0.659000 -0.085865 -1.038400 
0.502210 -0.909320 -0.028907 
-0.309430 1.255800 -0.127310 
0.660810 -0.172770 -1.331100 
-0.841890 0.459150 -0.657180 
0.636480 -0.448640 -1.150200 
-0.034287 1.338200 -0.147620 
0.500920 0.148230 -1.511200 
-0.091110 -1.213900 -0.525270 
-0.300690 -0.581940 -0.632190 
0.386730 -1.549700 0.161130 
0.541510 0.751720 -0.369830 
0.314890 0.567090 -1.262100 
-0.371840 1.215300 -0.636170 
0.750270 -0.139320 -0.226600 
-0.291110 -0.458750 -1.282200 
0.733280 0.097293 -0.443910 
0.527020 -0.578720 -0.643500 
-0.613300 0.662230 -1.216900 
0.569980 -0.363530 -0.958010 
-0.464300 1.449800 0.061961 
-0.710830 0.115150 -0.505690 
0.762900 0.987910 -0.230250 
-0.247530 -0.518170 -1.327600 
-0.584240 1.024300 -0.950470 
-0.627810 1.276500 -0.196170 
-0.440210 -1.407600 -0.246720 
-0.688530 0.052789 -0.396080 
0.344550 0.430080 -0.916540 
0.667020 -0.580890 -0.121180 
-0.038559 1.356700 -0.542480 
-0.745510 0.070109 -0.208970 
0.206830 1.307300 -1.414100 
0.197060 -1.654700 0.012307 
-0.615590 1.046000 -1.051700 
-0.696160 0.021489 -0.675740 
0.458990 0.928700 -0.408060 
-0.852120 0.391960 -1.264300 
0.503210 0.090272 -1.083400 
0.572490 -0.636250 -0.412600 
0.447730 1.074400 -1.438000 
-0.379300 -1.106900 -0.327190 
-0.420470 -1.015900 -0.346610 
0.256190 -0.967040 -0.539520 
0.580340 -0.639860 -0.918470 
-0.028302 -0.929460 -1.140300 
0.460890 0.738960 -0.450420 
-0.722700 -0.166370 -1.304200 
0.444170 0.208790 -1.430100 
0.786820 -0.105880 -1.579300 
-0.066836 -0.872450 -0.833240 
0.093834 -1.225500 -1.193800 
0.976900 -0.196910 -0.036891 
-0.283370 -0.472870 -1.117000 
0.628430 0.066041 -0.826260 
0.807690 0.684020 -0.284300 
0.071880 -1.513700 -0.151080 
0.242210 1.231200 -1.359700 
-0.856580 0.516530 -0.389180 
0.530370 -0.557490 -0.543400 
0.449750 -1.298000 0.168190 
1.141400 -0.444360 0.020235 
-0.279080 -1.125200 -0.402980 
-0.257810 1.207400 -0.642340 
0.373080 0.639760 -1.565300 
0.356340 0.350710 -1.101800 
1.020800 0.379060 -0.270770 
0.281380 -1.532500 0.127580 
-0.303500 1.166600 -0.399560 
0.381130 0.281020 -1.049700 
0.863110 -0.190250 -0.089465 
-0.828300 0.217280 -0.129670 
0.334410 0.710570 -1.463500 
1.077300 0.282850 -0.229810 
-0.372320 1.605700 0.086619 
0.351610 -0.898390 -0.530040 
-0.568520 0.950800 -0.829820 
-0.769310 1.537300 0.047739 
-0.102110 1.398000 -0.748110 
-0.514620 1.214600 -0.353250 
0.453110 0.148870 -1.041800 
0.435930 0.779040 -1.641000 
-0.651370 1.247500 -0.602080 
-0.881220 0.518320 -0.279400 
0.403980 0.568640 -1.611500 
-0.710050 0.095166 -0.310700 
0.892430 -1.059300 0.107600 
0.103530 -1.255300 -0.191300 
0.176000 1.139300 -1.037100 
-0.260280 1.326200 -0.059919 
0.595500 0.373050 -1.689400 
0.639420 0.584890 -0.350130 
-0.469800 1.186300 -0.266950 
-0.983460 -0.308830 -0.114900 
0.462010 1.329300 -0.282370 
0.239890 1.407100 -0.175640 
0.109560 1.280400 -0.635970 
0.536150 -0.547540 -0.755710 
-0.422580 1.174100 -0.446810 
0.512610 -0.849150 -0.113370 
-0.120610 -0.704300 -1.382400 
-0.247650 -0.526050 -1.202800 
0.433620 1.183700 -1.449700 
-0.079122 -1.241800 -1.135200 
0.644490 0.043653 -1.246500 
-0.886890 -0.660630 -0.251990 
-1.139500 0.865420 0.026727 
-0.154810 -1.224700 -1.448400 
0.198780 -1.136900 -0.042204 
0.530120 1.242200 -0.551940 
-0.142420 -1.219300 -0.681350 
0.753940 -0.021470 -0.623150 
0.852000 -0.084383 -0.155520 
-0.744920 -0.892050 -0.308490 
-0.112670 -1.274900 -1.532200 
0.568560 -0.431430 -0.437620 
0.402560 0.969540 -1.511900 
0.462540 0.140950 -1.275300 
0.055845 1.657600 0.006788 
0.622610 0.044083 -1.653000 
-0.698460 0.952020 -1.345400 
-0.819000 0.414770 -0.553840 
-0.650400 -0.465270 -0.304500 
0.545010 -0.539580 -0.440980 
-0.881160 0.373940 -1.053100 
0.085671 1.274600 -0.728340 
-0.604280 -0.204220 -0.398290 
0.139340 -1.162000 -0.104210 
0.960430 -0.022947 -0.106590 
-0.664870 1.063300 -0.272570 
0.615690 -0.181470 -0.893660 
-0.642890 1.609000 0.070689 
0.508360 0.085069 -1.219500 
-0.662860 -0.130530 -0.314730 
0.002714 1.345100 -0.227800 
-0.118990 -0.713710 -1.168700 
0.455230 0.144530 -1.134600 
-0.647950 1.191000 -1.171300 
0.362640 -1.315200 0.157360 
0.015583 1.423900 -0.073642 
0.603130 -0.801850 -0.522940 
0.361040 0.565980 -1.515800 
-0.860790 0.012507 -0.072705 
0.534910 -1.280000 0.165440 
-0.764530 -0.089211 -1.152600 
0.529720 1.102600 -0.364290 
-0.267610 1.723300 0.072895 
-0.433470 -0.305400 -1.181600 
-0.572800 -0.111900 -0.916550 
-0.039918 -0.845830 -1.179200 
-0.633550 0.960040 -0.230970 
-0.150170 -1.286300 -0.279140 
-0.474050 1.202800 -0.179520 
0.146280 -1.566900 -0.006377 
0.535330 0.431300 -0.463900 
-0.151420 -0.668810 -0.952250 
0.488460 1.130200 -0.960350 
0.057876 -1.239700 -1.568900 
0.606680 -0.199920 -1.048400 
0.718560 -0.096458 -0.847900 
0.827680 -0.928160 0.106410 
-0.079645 -0.763690 -1.562600 
0.631050 -0.745530 -0.925470 
-0.592460 1.289200 -0.075176 
-0.729740 0.250850 -0.729350 
0.657410 1.251800 -0.230580 
0.378070 1.072900 -1.658400 
0.546100 -0.448730 -0.548590 
-0.633680 -0.223600 -1.344900 
0.031871 -1.469100 -0.224880 
-0.788420 0.426560 -1.210600 
0.356600 0.860100 -0.585130 
0.583130 1.263600 -0.368530 
0.801590 -0.023818 -0.340540 
-0.094885 -1.105100 -1.567400 
-0.076681 -0.767940 -1.344400 
-0.593530 0.926260 -1.038600 
0.506500 0.113100 -0.819890 
-0.788720 0.876930 -0.072974 
-0.219180 -1.136200 -0.667700 
-0.575420 -0.394580 -0.381700 
-0.740860 1.350400 0.012848 
0.596320 -0.736880 -0.418610 
-0.112840 -0.721160 -1.040400 
0.321980 0.932580 -0.707020 
0.246710 -1.342600 -0.944890 
-0.206310 -1.100600 -0.810420 
-0.555070 -0.214880 -0.493240 
0.312940 0.572240 -0.968250 
-0.532550 -0.166150 -0.622910 
-1.118200 0.346380 -0.003079 
-0.783960 -0.348800 -0.210130 
-0.591210 1.216000 -1.066600 
0.348900 1.202900 -0.879660 
-0.565290 1.281300 -0.522470 
0.706050 0.041076 -1.112200 
-0.816600 0.560000 -0.474560 
-0.015882 1.742300 0.017115 
0.854380 0.256580 -0.256340 
-0.693480 0.784530 -0.208600 
0.050453 -1.218100 -1.407900 
0.290780 -1.615700 0.098121 
0.039384 -1.189600 -0.740480 
-0.637160 -0.771910 -0.306280 
-0.923910 -0.432160 -0.179040 
-0.101560 1.475800 0.009623 
-0.815580 -0.777170 -0.283980 
0.372200 1.231400 -1.144600 
0.319670 0.791860 -0.705130 
-0.041854 -1.000700 -1.191300 
-0.154540 -0.641570 -1.556700 
0.488300 1.088600 -0.464950 
-0.618250 0.664210 -1.308100 
-0.574550 0.830330 -0.826810 
0.897630 -0.520530 0.026712 
0.102950 -1.189200 -1.308500 
-0.820950 -0.236060 -0.153070 
0.118580 1.188400 -1.098000 
-0.638750 0.588180 -1.266500 
-0.450050 -0.281580 -0.746550 
0.429870 1.036100 -0.522150 
0.757500 -0.735520 0.033099 
0.484660 1.132300 -1.080500 
-0.922890 0.249640 -0.062164 
-1.174200 0.267660 0.006945 
-0.631060 1.052400 -0.377200 
-0.676160 0.599730 -0.831150 
-0.883800 0.282400 -1.012400 
-0.775650 0.347480 -0.302400 
-0.695520 -0.003119 -0.848110 
-0.508720 -0.313940 -0.518110 
-0.727300 0.213670 -0.649400 
-0.935990 1.060300 0.020656 
0.431830 -0.851320 -0.272950 
0.814570 1.071500 -0.217000 
-0.572200 1.310700 -0.627890 
0.405340 0.276350 -1.391300 
0.358280 0.726100 -0.624580 
-0.065044 -1.048500 -1.336800 
-0.020610 -0.922960 -1.269500 
-0.569220 -0.953460 -0.328400 
0.107030 1.168100 -0.788300 
0.697670 0.481000 -0.341070 
1.052400 -0.496230 0.040963 
0.192910 -1.124000 -0.864920 
0.632430 -0.291790 -1.309200 
0.293400 1.149000 -1.001400 
0.572230 -0.527090 -0.338100 
0.291240 1.693200 -0.087821 
-0.368870 -0.359150 -1.108500 
-0.065209 1.653600 0.039802 
0.323240 0.498370 -1.012600 
0.913510 -0.745900 0.083347 
-0.765300 0.233840 -0.813350 
-0.676780 0.713900 -0.291860 
0.742560 0.000256 -1.023700 
-0.838740 0.402140 -0.829740 
-0.726360 -0.776320 -0.290260 
0.010330 1.396400 -0.891470 
-0.559410 1.069900 -0.876160 
0.379540 -0.994840 -0.705220 
0.206410 -1.350500 0.086018 
0.024451 -1.192400 -0.539300 
-0.586240 0.949510 -0.345430 
0.932640 0.371160 -0.271620 
1.078400 -0.349770 0.011894 
-0.021806 -1.182900 -0.826730 
-0.195410 -0.605380 -0.995040 
0.162930 -1.387800 -0.961050 
0.101300 -1.371700 -0.873620 
0.635440 -0.683400 -0.145760 
-0.094860 -1.000900 -0.819440 
0.966660 -0.944110 0.094246 
-0.791710 -0.664780 -0.262510 
-0.486980 -0.272160 -0.617060 
0.958440 0.079291 -0.152300 
0.602170 -0.574290 -0.244860 
-0.515650 1.661100 0.084646 
0.302950 0.641860 -1.214100 
-0.146820 -1.042300 -0.874400 
0.220220 -1.349400 -0.704880 
0.055645 1.374800 -0.637400 
-0.508620 -0.184910 -0.733090 
0.295020 0.942920 -1.059900 
-0.617230 -0.287210 -0.358460 
-0.779920 0.381830 -0.654190 
0.718280 -1.263500 0.143840 
0.023987 1.346600 -1.114800 
0.930550 0.650920 -0.292480 
0.233700 1.631900 -0.060702 
0.757290 -0.364130 -0.116600 
1.185700 -0.153330 -0.047430 
-0.022469 -0.989430 -1.412800 
0.409040 0.905320 -1.571400 
0.312330 1.155700 -0.809910 
-0.115800 -0.831510 -0.706050 
-0.628690 1.382000 0.034921 
0.115770 -1.127200 -0.216320 
0.362140 0.419900 -1.406700 
-0.722450 -0.176670 -0.228170 
-0.938010 -0.222010 -0.087776 
-0.909920 0.415970 -0.178320 
-0.020013 -1.235200 -1.253700 
0.166840 1.191000 -0.512290 
-1.078300 0.782110 0.023590 
-0.562220 1.116200 -0.801570 
-0.557080 1.382400 -0.844440 
-0.681140 -0.274910 -0.283800 
-0.614580 1.155000 -0.703880 
0.518760 0.872850 -0.358380 
-0.922300 0.521540 -0.173940 
-0.378930 -0.352700 -0.849730 
-0.835910 0.507780 -0.756240 
-0.907160 -0.348390 -0.152070 
0.725220 -0.656670 -0.023761 
-0.119540 -1.244800 -0.378640 
0.469370 -1.431400 0.183290 
0.658000 -0.957540 0.080575 
-0.013923 -1.336200 -0.258510 
0.453950 1.264200 -0.628230 
0.043751 1.257400 -1.052800 
0.418830 1.020500 -1.592500 
-0.049055 1.387100 -0.651360 
0.324140 0.494510 -1.208900 
0.146310 1.439300 -0.191980 
-0.851020 1.396200 0.036882 
0.446670 1.071900 -0.882990 
0.538430 -0.470340 -0.658630 
0.044246 -1.424300 -0.313620 
-0.610050 0.651700 -1.054000 
-0.900800 1.180500 0.019041 
0.337880 0.422490 -1.155200 
-0.685620 0.908380 -0.163020 
-0.462050 1.364700 -0.782340 
0.950160 0.276020 -0.231100 
0.314670 0.648890 -0.833210 
0.295380 0.860080 -1.255300 
0.610100 -0.677810 -0.236100 
0.090254 -1.149900 -0.448690 
-0.153090 -1.248500 -0.466250 
-0.697220 -0.663450 -0.282330 
0.658210 -0.921100 -0.754760 
-0.437660 -0.392510 -0.578230 
0.413600 0.215700 -0.999220 
0.372110 -1.050000 -0.776800 
0.870180 0.158580 -0.232850 
0.528780 0.557880 -0.435130 
0.972950 0.480720 -0.295130 
-0.747160 0.678600 -0.219570 
-0.336090 -1.001500 -0.374520 
-0.937930 0.363310 -0.097821 
0.550520 0.163650 -1.643900 
-0.812300 0.212870 -0.889910 
-0.141390 1.738400 0.049984 
0.512210 0.430430 -1.679100 
-0.204520 -0.579490 -1.373800 
-0.790510 0.289620 -0.205530 
0.279160 -1.072000 -0.829210 
0.279570 -1.333000 0.129750 
0.236510 -1.327200 -1.137800 
-0.117660 -1.284200 -1.621100 
0.287170 -1.135600 0.032797 
-0.195980 -1.207800 -0.609280 
-0.286480 -1.352300 -0.219730 
-0.056911 -0.998760 -1.064200 
-0.072067 -0.996150 -0.939750 
-0.381290 -1.344300 -0.234620 
-0.074085 -0.777930 -1.131200 
-0.158580 -0.657760 -1.081200 
0.101990 -1.140100 -0.557120 
-0.287560 -0.455970 -1.407200 
-0.520260 -0.278700 -1.406100 
-0.524210 -0.162540 -0.847030 
-1.031400 -0.183590 -0.050921 
-0.760420 0.185510 -0.207930 
-0.850580 0.398130 -1.150000 
-0.996500 0.472850 -0.076267 
-0.736040 0.477420 -1.143400 
-0.607880 0.741520 -1.256800 
-0.562140 0.812180 -0.617070 
-0.606580 0.945230 -1.141600 
-0.630290 1.115700 -1.107900 
-0.630300 1.261600 -0.743780 
-0.716580 1.431200 0.054162 
-0.532770 1.237100 -0.121540 
-0.421150 1.297300 -0.727250 
-0.322960 1.241200 -0.728760 
-0.342470 1.458500 0.051014 
-0.124590 1.448700 -0.833250 
0.046531 1.385400 -0.724720 
0.657480 1.019000 -0.243250 
0.310610 0.640230 -1.313900 
0.304060 0.646480 -0.923790 
0.296850 0.720070 -0.878970 
0.438780 0.423810 -1.603900 
0.390550 0.421120 -1.508100 
0.362200 0.347690 -1.249300 
0.337130 0.424730 -1.057300 
-0.640290 -0.381150 -0.320440 
0.419430 0.206640 -1.236000 
0.455750 0.159700 -0.906460 
0.540520 0.153580 -0.617370 
0.413610 0.210680 -1.092700 
0.614950 -0.343220 -1.206500 
0.596600 -0.910250 0.030622 
0.596620 -0.678770 -0.327110 
0.644980 -0.704420 -1.002400 
0.587930 -0.835250 -0.046278 
0.651870 -0.837410 -0.686220 
