-0.733410 0.359020 -0.541010 
0.434410 0.238940 -0.779280 
0.386730 -1.549700 0.161130 
-0.312000 1.182800 -0.560690 
0.734210 0.014209 -0.825670 
0.468690 0.176860 -0.777920 
-0.900800 1.180500 0.019041 
-0.053584 -1.300500 -0.254120 
-0.141030 -1.223700 -0.645360 
0.384880 1.039000 -0.965550 
0.088210 -1.154200 -0.411550 
-0.225680 -1.157400 -0.601330 
-1.098200 0.852510 0.028807 
-0.788720 0.876930 -0.072974 
-0.131480 1.327100 -0.698790 
-0.630290 1.115700 -1.107900 
-0.675250 0.841990 -0.203500 
-0.691680 1.382100 0.032586 
-0.514360 -0.266700 -1.325700 
0.713220 0.084218 -0.517270 
0.019388 1.364500 -0.431840 
-0.124590 1.448700 -0.833250 
0.231550 -1.475700 0.109220 
0.339880 0.994360 -0.752360 
1.145700 -0.149030 -0.041673 
-0.152490 -0.680600 -0.866230 
0.136340 1.406300 -0.270220 
0.478340 1.192500 -1.110000 
0.735070 -0.108730 -0.327690 
-1.079100 -0.195550 -0.053804 
0.202050 -1.083100 -0.788400 
-0.671420 0.777470 -0.246790 
0.751990 -0.020017 -1.307100 
-0.065044 -1.048500 -1.336800 
0.275470 -0.929570 -0.301490 
0.171090 -1.219600 -1.395100 
-0.732010 0.472420 -1.174000 
-0.086736 -1.198000 -0.791300 
0.484660 1.132300 -1.080500 
0.221440 1.164800 -0.476030 
-0.033831 -0.931430 -1.054900 
0.713120 -0.129390 -1.352800 
0.703200 -0.124000 -1.236000 
-0.135090 -1.038000 -0.955080 
0.828410 -0.189370 -0.113950 
-0.616280 0.824890 -0.320270 
0.106590 1.733800 -0.023309 
-0.462050 1.364700 -0.782340 
-0.611400 1.048300 -0.447770 
-0.030390 -1.528200 -0.129690 
0.314670 0.648890 -0.833210 
0.305700 0.862670 -0.747880 
0.625820 1.011500 -0.257630 
0.206770 -1.387000 -0.883860 
-1.123600 0.051517 0.011999 
-0.873770 0.103610 -0.870860 
-0.617230 0.664380 -1.278000 
0.984680 -0.626550 0.064294 
0.136820 -1.301700 -0.201310 
0.431670 1.350700 -0.227310 
0.354430 1.205600 -0.568520 
-0.655820 1.198800 -0.641280 
-0.447250 -0.407780 -0.545580 
0.643470 -0.595710 -1.049600 
0.258230 1.118500 -0.848580 
-0.091110 -1.213900 -0.525270 
-1.140300 0.735400 0.021521 
-0.950240 0.242600 -0.045134 
-0.858610 0.900320 -0.024307 
0.714660 -0.108830 -0.553130 
0.331640 -1.072300 -0.931020 
0.651210 -0.449930 -1.179600 
0.420460 1.644900 -0.124730 
0.241370 1.184800 -0.411710 
-0.712430 -0.063803 -1.062500 
0.621330 0.338690 -0.407720 
0.092106 -1.664900 -0.058512 
0.290890 1.237000 -1.400900 
0.219350 1.115000 -0.730930 
0.550520 0.163650 -1.643900 
-1.254000 0.335860 0.001576 
-0.852530 0.420260 -1.063000 
-0.578570 1.357700 -0.923860 
0.652060 -0.146340 -0.610210 
0.447200 1.072300 -1.347000 
-0.014749 1.393000 -0.963830 
-0.791710 -0.664780 -0.262510 
1.070800 -0.079227 -0.056616 
0.549410 -0.374260 -0.732490 
0.992070 0.084350 -0.137390 
-0.792230 0.373550 -0.756220 
0.553450 -0.331210 -0.805980 
-0.487830 -0.543210 -0.415590 
-0.714470 1.116600 -0.243520 
0.130750 1.230400 -0.591290 
0.435930 0.779040 -1.641000 
0.106690 -1.200400 -0.528710 
-0.760600 0.590200 -0.557550 
0.343260 0.724590 -0.664140 
0.299430 0.940670 -1.153600 
-0.367690 1.256500 -0.102180 
0.527020 -0.578720 -0.643500 
-0.565290 1.281300 -0.522470 
-0.143960 -0.772470 -0.704510 
0.093639 1.334000 -0.610210 
-0.276730 -0.542440 -0.742730 
0.489110 0.144650 -1.464700 
0.586860 -0.628240 -0.318350 
0.442830 1.233000 -1.011000 
0.047232 1.392800 -0.205290 
-0.941730 0.113900 -0.028894 
-1.119600 0.793880 0.025482 
-0.039287 -1.384800 -0.207210 
0.642380 -1.190400 0.141250 
-0.035011 -1.197400 -0.942190 
-0.254250 1.194000 -0.591520 
-0.559370 -0.377580 -0.405700 
0.389510 1.033500 -0.758170 
-1.014100 0.292780 -0.026846 
0.484440 0.191970 -0.696540 
0.984650 -0.135800 -0.053691 
0.514380 0.618880 -0.431420 
0.674730 0.901430 -0.265240 
-0.199080 -0.641000 -0.783830 
0.001481 1.404300 -0.687220 
1.046000 0.282880 -0.227840 
-0.593930 0.696610 -0.798360 
0.219120 -1.251600 -1.321500 
0.643410 -0.363260 -0.282490 
0.595150 -0.704300 -0.559260 
0.387700 0.447940 -0.702570 
-0.616400 1.280600 -0.560300 
0.322350 1.199000 -1.154900 
0.166840 1.191000 -0.512290 
0.217190 -1.350500 -0.670540 
0.204510 -1.356700 -0.532770 
0.654490 -0.229060 -1.480600 
0.556860 1.250500 -0.458490 
-0.859650 0.338690 -0.980040 
0.575130 1.157900 -0.352480 
0.777560 -0.892570 0.093518 
-0.393670 -0.328330 -0.974760 
0.336330 0.849100 -1.449500 
0.346820 0.792620 -0.624130 
0.073415 -1.234700 -0.694420 
0.915000 0.773980 -0.273560 
0.433660 -0.852990 -0.244800 
-0.245090 -1.045000 -0.439090 
-0.116400 -1.446700 -0.147630 
0.302370 0.720720 -0.834020 
0.740040 0.034249 -0.592050 
-0.880250 1.240500 0.018314 
-0.317260 1.311600 -0.056106 
0.787100 1.192200 -0.198830 
0.529850 0.297470 -0.518500 
-0.206310 -1.100600 -0.810420 
0.194530 -1.366900 -0.429620 
0.822930 -0.247930 -0.096302 
0.435410 1.256900 -0.694100 
0.550920 1.146100 -0.415650 
0.802000 -1.072100 0.118730 
-0.694320 0.531120 -1.027900 
-0.593880 1.031200 -0.985300 
0.278940 1.159500 -1.120900 
0.533940 -0.551040 -0.509440 
0.710120 0.032729 -1.236900 
-0.046326 -0.831100 -1.523300 
-0.455270 -0.262470 -0.824650 
-0.054423 1.439400 -0.964500 
0.290660 1.272100 -1.479500 
-0.303010 -0.832480 -0.460830 
-0.146530 -1.088300 -1.224900 
-0.516250 1.210200 -0.324530 
0.771790 0.926950 -0.241300 
0.138070 -1.129800 -0.724090 
0.581450 0.186510 -0.508780 
-0.164950 1.495300 0.031872 
-0.642890 1.609000 0.070689 
0.629250 0.063165 -0.867340 
-0.264630 1.242600 -0.736500 
-0.193790 1.671600 0.065782 
-0.504400 -0.264940 -1.246300 
0.542170 -0.643310 -0.692690 
0.193720 -1.504000 0.069344 
-0.581560 1.086700 -0.979600 
-0.324370 -0.413610 -1.113600 
0.708130 -0.845330 0.053237 
-0.546500 0.939680 -0.545850 
0.101260 -1.427900 -0.395750 
-0.898880 1.044000 0.010841 
-0.153130 -0.664420 -0.995500 
-0.021560 -0.912280 -1.446700 
0.328640 -1.016500 -0.704770 
0.388530 -1.342900 0.170000 
-0.883800 0.282400 -1.012400 
0.447780 1.073900 -0.963480 
0.847300 0.632280 -0.290530 
-0.513340 -0.234350 -1.066000 
0.767110 -0.027107 -1.433500 
-0.693200 1.017000 -1.323800 
0.458430 0.901690 -1.707000 
-0.058401 -1.293700 -1.519900 
-0.298120 -1.377300 -0.204880 
-0.317540 1.650500 0.082981 
-0.433470 -0.305400 -1.181600 
-0.467310 1.197300 -0.410860 
0.039384 -1.189600 -0.740480 
0.636400 -0.893760 -0.691210 
0.417260 1.024500 -1.452600 
-0.499820 -0.299360 -0.549850 
0.436270 -0.853940 -0.382060 
0.788240 1.341400 -0.195610 
0.928500 0.530940 -0.297480 
-1.180600 0.878190 0.022051 
-0.676830 0.520650 -1.252400 
-0.770580 -0.272350 -0.200930 
-0.615590 1.046000 -1.051700 
-0.213030 -0.662550 -0.705540 
-0.792030 0.171430 -0.158260 
0.197060 -1.654700 0.012307 
0.808210 -0.836490 0.086862 
0.411420 1.135500 -1.603500 
-0.353460 -0.645040 -0.507510 
0.241660 -1.344100 -0.910460 
0.614110 -0.218300 -1.198000 
0.617810 -0.854880 0.001658 
1.040300 0.236040 -0.200860 
-0.021434 -1.235100 -1.212100 
0.159850 1.194800 -1.185800 
-0.599890 0.952550 -0.306550 
-0.719590 1.161600 -0.300580 
-0.575510 1.018200 -0.914660 
0.391110 1.038900 -1.182500 
0.130320 1.387600 -0.323810 
1.020800 0.379060 -0.270770 
0.511010 0.083791 -1.265400 
-0.565440 1.244700 -0.357800 
-0.897680 0.568450 -0.172350 
0.502370 -1.354300 0.178640 
-0.788320 0.425030 -1.239800 
-0.745220 0.801010 -0.137480 
0.387130 0.591050 -0.626500 
-0.651190 -0.119670 -0.339500 
0.766250 -1.213500 0.132600 
0.571010 0.166730 -1.685400 
-0.315310 1.196500 -0.611140 
-0.823960 0.253080 -0.925730 
0.300670 -1.292000 -1.208800 
0.591890 -0.778660 -0.142080 
0.614880 0.305700 -1.681200 
0.017793 1.300400 -1.028800 
0.375770 0.778720 -1.553400 
-0.083830 -1.205200 -0.601430 
-0.276230 -1.456400 -0.168100 
0.722210 0.319060 -0.337260 
0.820990 0.401630 -0.300180 
0.402560 0.969540 -1.511900 
0.422990 0.599000 -0.554160 
-0.690240 -0.144980 -1.168800 
-0.414550 -0.628160 -0.451950 
1.187900 -0.026578 -0.086879 
-0.893970 0.131080 -0.057846 
0.024908 -1.211400 -0.935470 
0.565640 0.093489 -1.582900 
0.389110 0.909350 -1.526500 
0.612360 1.434900 -0.172310 
0.531550 1.424500 -0.181580 
0.371770 1.225900 -0.506000 
0.255700 -1.504600 0.120100 
-0.133210 1.208400 -0.423030 
-1.077100 0.282680 -0.005911 
-0.588190 -0.257080 -0.408150 
0.623060 -0.815850 -0.595200 
0.593730 -0.264930 -0.443610 
0.337690 -1.288500 0.141330 
1.016000 -0.484450 0.039746 
0.456120 1.398200 -0.192600 
-0.168270 -0.706060 -0.743320 
-0.074860 -0.790900 -0.956340 
-0.061746 -1.440900 -0.164060 
-0.671240 -0.483340 -0.290170 
-0.853000 -0.391780 -0.187050 
0.379180 1.233600 -1.064200 
0.308200 0.783040 -1.359100 
-0.819000 0.414770 -0.553840 
-0.610660 0.817450 -1.259800 
0.206410 -1.350500 0.086018 
0.695930 0.051570 -0.908790 
-0.062107 -1.222000 -1.056400 
-0.771350 0.099525 -0.696940 
-0.581730 -0.478910 -0.353400 
-0.041854 -1.000700 -1.191300 
-0.798450 0.382740 -0.376500 
0.072201 -1.606600 -0.067117 
0.569870 -0.579690 -0.342800 
0.852000 -0.084383 -0.155520 
0.578810 0.882170 -0.313250 
-0.646530 0.702410 -0.374600 
0.636240 0.054835 -1.033700 
-0.555270 1.055700 -0.733570 
-0.020151 -1.235600 -1.171100 
0.120120 -1.297100 -0.077738 
-0.539720 1.265100 -0.067952 
0.479550 0.142340 -1.417500 
-0.824730 0.301440 -0.930580 
0.306810 -1.168500 -1.111200 
0.119200 1.576300 -0.028039 
0.463000 0.647910 -1.690900 
-0.602820 1.489500 0.072135 
-0.200920 -0.597330 -1.079800 
-0.037278 -0.932050 -1.012200 
-0.745510 0.070109 -0.208970 
-0.557530 -0.132080 -0.577410 
-0.347090 -1.376900 -0.214310 
-0.042461 -1.204400 -0.980270 
0.365110 1.237100 -0.374790 
-0.044442 -1.195300 -0.471760 
0.530570 0.143930 -0.656110 
0.861010 0.463780 -0.297130 
0.289240 -0.924890 -0.477930 
-0.901500 0.314510 -0.099795 
-0.590220 1.007100 -0.378670 
0.069034 1.274400 -0.788690 
0.361040 0.565980 -1.515800 
0.159150 1.238500 -1.255300 
-0.075305 -0.773440 -1.216600 
0.401650 0.524200 -0.626510 
-0.025881 1.337500 -0.430340 
0.083338 1.216700 -0.788200 
-0.183320 1.611500 0.062869 
-0.667200 0.005823 -0.420340 
1.000500 -0.333570 0.005556 
0.908320 -0.453910 0.013026 
0.918180 0.473650 -0.293520 
0.381190 1.499900 -0.135650 
-0.112370 1.276600 -0.602880 
0.750640 0.044292 -0.515830 
-0.012371 -1.243100 -1.337300 
0.326550 1.001700 -0.923480 
0.179120 -1.212700 -0.000367 
0.706160 -0.304500 -0.198220 
-0.642310 1.146200 -0.611090 
-0.379690 -0.385690 -0.730150 
0.296850 0.720070 -0.878970 
-0.660500 0.707770 -0.332840 
0.599870 -0.714860 -0.613250 
0.344590 0.929320 -0.624990 
0.281860 -1.224200 -1.052300 
0.685260 0.419840 -0.354020 
-0.858550 0.153600 -0.900230 
-0.451690 -0.271500 -0.785280 
1.138300 -0.216140 -0.024038 
-0.368870 -0.359150 -1.108500 
-0.143540 -1.225800 -1.537800 
0.592390 -0.682270 -0.387020 
-0.624480 1.240700 -1.140000 
-0.835910 0.507780 -0.756240 
-0.291110 -0.458750 -1.282200 
0.607410 -0.869270 -0.611970 
0.589050 0.822480 -0.321040 
-0.196810 -1.215600 -0.575360 
-0.606580 0.945230 -1.141600 
0.691130 -0.125130 -0.446320 
0.427070 0.315690 -0.699700 
0.023987 1.346600 -1.114800 
-0.582830 0.900550 -0.889580 
0.625800 -0.544470 -1.050500 
0.112870 -1.210100 -1.424600 
0.379170 1.335600 -0.213810 
0.382430 0.277670 -1.145500 
0.748820 -0.030664 -0.701070 
-0.631850 0.637610 -0.757140 
-0.238020 -1.510000 -0.149000 
-0.843030 0.399450 -0.863230 
-0.124870 -1.215100 -1.059300 
0.106800 1.341100 -0.521150 
0.629340 0.073464 -0.744870 
-0.033543 -1.589000 -0.105370 
0.204600 1.319600 -0.293560 
-0.111080 -0.724440 -0.996750 
0.345790 1.230600 -1.393500 
-0.852810 0.392880 -0.929150 
0.615420 -0.205100 -0.429810 
-0.244820 1.179800 -0.373390 
-0.704910 0.162470 -0.380230 
0.494730 0.200580 -0.657390 
-0.564640 -0.228490 -0.463580 
0.854380 0.256580 -0.256340 
0.337030 0.423530 -1.105900 
0.506300 0.086605 -1.173900 
0.200340 -1.393700 -0.812070 
0.325930 1.183100 -0.494930 
0.309190 0.854930 -1.352500 
0.001903 1.394100 -0.915540 
-0.416320 -1.150600 -0.307800 
0.669160 0.177730 -0.408220 
-0.098086 1.384600 -0.724430 
-0.040810 -0.835780 -1.393700 
-0.094888 -1.103000 -1.523500 
-0.436160 -0.808420 -0.385300 
0.575220 -0.227340 -0.594470 
-0.042901 1.482900 -0.001825 
0.551910 -0.442380 -0.511590 
-0.222750 -0.674800 -0.668570 
-0.140910 -1.168500 -1.621500 
-0.672370 0.649340 -0.423500 
0.453880 0.155430 -0.950840 
0.815740 -0.015259 -0.303930 
0.301140 0.857670 -1.303800 
0.659970 -0.250680 -0.288480 
-0.973190 1.077800 0.026268 
0.547360 -0.873550 -0.035723 
0.467350 1.129200 -1.334300 
-0.243730 -0.533230 -1.119700 
-0.391510 -0.345290 -1.312600 
0.976900 -0.196910 -0.036891 
-0.922950 -0.599850 -0.232230 
-0.198270 -1.382300 -0.183340 
0.453890 0.146470 -1.088000 
0.058569 -1.384600 -0.442410 
0.461200 0.988610 -0.407000 
0.576290 -0.632980 -0.381340 
0.538580 -0.629020 -0.632150 
0.183920 1.283200 -0.376620 
-0.418450 1.181300 -0.246510 
-0.053642 -1.044600 -1.557600 
0.757500 -0.735520 0.033099 
0.344440 -0.920790 -0.164730 
0.572230 -0.527090 -0.338100 
-1.221100 0.755360 0.012737 
-0.975070 0.813510 0.008157 
-0.154810 -1.224700 -1.448400 
-0.852120 0.391960 -1.264300 
-0.549020 -1.223100 -0.316040 
-0.753650 0.629520 -0.308350 
0.512460 1.239000 -0.616420 
-0.844220 0.606940 -0.200920 
0.281020 -1.285700 -1.020600 
1.078400 -0.349770 0.011894 
1.117100 -0.358870 0.009341 
-0.197580 1.299400 -0.111490 
0.555210 -0.587130 -0.408590 
0.621960 -0.418040 -0.292730 
0.311190 -1.055300 -0.771630 
0.413670 1.221300 -1.296000 
1.141400 -0.444360 0.020235 
0.529610 -0.517240 -0.618380 
-0.575420 0.755720 -0.712280 
-0.326120 1.272800 -0.793450 
0.431670 0.570900 -1.654200 
-0.947580 -0.023040 -0.026706 
0.692420 0.065232 -0.670560 
-0.288900 1.501400 0.058276 
-0.257810 1.207400 -0.642340 
0.637330 1.302200 -0.231440 
0.591920 -0.793900 -0.472730 
0.025245 1.364200 -0.374360 
0.540520 0.153580 -0.617370 
-0.267900 -0.635200 -0.633340 
-0.387210 -0.335460 -0.932770 
0.175840 1.594400 -0.044371 
-0.638290 0.586730 -1.235500 
-0.415980 -0.338540 -0.721810 
0.596180 -0.334060 -1.138300 
0.880530 0.414090 -0.288820 
0.299210 0.643980 -1.066500 
0.330150 0.723340 -0.704970 
-0.701290 1.148700 -0.394010 
-0.727990 1.242700 -0.164420 
0.522910 0.792080 -1.705200 
-0.523440 -0.289230 -1.444600 
0.455230 0.144530 -1.134600 
-0.589710 -0.278380 -1.457600 
-0.305530 1.589800 0.079614 
-0.051344 -1.043100 -1.600000 
-0.018835 -1.174700 -0.709350 
0.304060 0.646480 -0.923790 
0.381950 0.283350 -1.002800 
0.290170 0.718490 -1.019200 
-0.078705 -1.265900 -1.259000 
-0.551910 0.999280 -0.569580 
-0.812690 1.260300 -0.012690 
0.090932 -1.179300 -0.259580 
0.407470 0.842080 -1.585200 
0.106750 -1.209900 -0.144440 
-0.025575 -0.983750 -1.502900 
0.535700 -0.812500 -0.294100 
-0.118990 -0.713710 -1.168700 
-0.615740 1.214000 -0.788790 
0.069007 -1.233600 -0.615310 
0.440010 0.322660 -0.660900 
-0.323970 -1.112600 -0.353540 
-0.111370 -0.733410 -0.909410 
0.591300 -0.691270 -0.474810 
0.298570 1.182600 -0.419140 
-0.940860 0.523210 -0.140850 
0.365660 0.913560 -1.482500 
0.574770 -0.684070 -0.863350 
0.680560 -0.975180 0.092893 
0.222900 1.148800 -1.121000 
-0.183540 -1.077000 -1.052600 
0.237360 -1.234300 -0.947780 
-0.617990 1.262600 -0.337460 
-0.249970 -1.576300 -0.151950 
0.129170 -1.332900 -1.067400 
0.657410 1.251800 -0.230580 
-0.085685 1.240700 -0.411710 
0.131170 -1.510900 -0.043001 
-0.826980 0.408810 -0.727810 
-0.177000 -1.190700 -1.102700 
0.069251 1.371500 -0.434560 
-0.095613 -0.814560 -0.785340 
0.744850 -0.049292 -0.896910 
-0.539750 -0.235310 -1.144800 
-1.054800 0.972760 0.030571 
0.228550 -1.378200 0.108040 
-0.071962 -1.231900 -1.095300 
-0.761080 -0.006045 -0.172490 
0.744850 -0.006061 -1.103600 
-0.072000 1.310200 -0.544020 
-0.418870 1.171000 -0.304540 
-0.245940 -0.516970 -1.369600 
0.741890 0.549830 -0.316380 
0.772700 1.119000 -0.206410 
0.265130 -1.329200 -1.046700 
-0.832440 0.350340 -0.919130 
-0.655920 1.244600 -0.544760 
-0.607940 0.757010 -0.410760 
0.645620 -0.156270 -1.105200 
0.153220 -1.398700 -0.885330 
1.124900 -0.521130 0.034782 
0.302260 -0.931690 -0.531360 
-0.641720 -0.534580 -0.304530 
0.563260 -0.575750 -0.884570 
0.403980 0.568640 -1.611500 
-0.000746 1.628100 0.023395 
0.641000 -0.749610 -0.946170 
0.744450 -0.060084 -1.014600 
-0.571840 0.812500 -0.488020 
-0.784280 1.418500 0.046165 
0.330700 1.196700 -1.074200 
0.660140 -0.141110 -0.569000 
-0.719690 0.059884 -0.617680 
-0.003441 1.368000 -1.062600 
0.372200 1.231400 -1.144600 
-0.656790 -0.132160 -1.101500 
0.281120 -0.939820 -0.239740 
-0.383510 -0.398430 -0.692200 
0.483070 -1.228200 0.150390 
-0.754470 0.586870 -0.636290 
0.789050 0.804560 -0.263000 
-0.574550 0.830330 -0.826810 
1.073200 -0.020100 -0.076168 
0.615690 -0.181470 -0.893660 
0.252390 1.196600 -1.281500 
0.553580 0.240980 -0.514150 
-1.006400 0.021907 -0.002913 
0.385950 1.040000 -1.008200 
0.282940 0.867100 -1.015900 
-0.121970 1.299700 -0.652240 
-0.565020 1.074800 -0.911270 
0.652680 -0.914040 -0.739770 
0.536490 0.995910 -0.319870 
0.058766 1.328800 -1.170300 
-0.144650 -1.227400 -1.583200 
-0.136200 -1.255200 -1.267000 
-0.370150 -1.319800 -0.243250 
0.431270 -0.850650 -0.300850 
-0.056394 -1.297100 -1.565100 
0.988040 0.327930 -0.250530 
-0.270870 1.287400 -0.818260 
-0.414770 1.343400 -0.806760 
0.171560 1.545100 -0.065661 
-0.450520 -0.665590 -0.408290 
-0.455210 -0.507210 -0.465120 
0.778690 -0.040066 -0.415980 
-0.695610 0.659050 -0.339770 
0.726290 -0.419920 -0.127280 
0.409650 0.350500 -1.500700 
0.526110 1.294800 -0.414710 
0.693940 -0.123710 -0.674370 
0.802140 -0.493870 -0.028807 
0.665200 -0.293500 -1.438800 
0.124920 1.269400 -1.231900 
-0.621800 -0.155570 -0.382900 
-1.213900 0.621820 0.008800 
-0.429590 -0.291060 -0.921600 
0.621240 -0.741130 -0.904020 
-0.326980 -0.402870 -1.485900 
0.591490 0.045383 -1.435700 
-0.879390 0.465440 -0.301290 
0.995150 0.428880 -0.285520 
0.871730 -0.651230 0.054555 
-0.072871 -1.048800 -1.293700 
-0.066701 -1.285900 -1.385200 
-0.762160 0.125140 -0.191630 
0.302640 -1.464200 0.151730 
-0.615720 1.267400 -0.449690 
-0.095377 1.424700 -0.021875 
0.746980 -0.077940 -1.251100 
0.399940 1.242400 -0.871150 
0.549900 1.362600 -0.234430 
0.769070 1.251000 -0.192370 
0.312310 -1.285400 -1.273100 
0.484500 1.276300 -0.533980 
-0.575750 0.776070 -0.914490 
-0.046392 -0.828340 -1.567000 
0.495660 1.237000 -0.682810 
0.745700 1.308000 -0.187280 
0.966660 -0.944110 0.094246 
-0.590860 0.919600 -1.002500 
0.913510 -0.745900 0.083347 
0.894430 0.704860 -0.282460 
-0.328770 -0.409210 -1.155000 
-0.583810 1.430600 0.059770 
0.640300 0.464830 -0.372820 
-0.695510 0.720770 -0.251910 
-0.580190 1.004900 -0.416380 
0.560560 0.070898 -0.864180 
-0.737190 0.309050 -0.327950 
0.130490 -1.080500 -0.579020 
0.183950 1.205700 -0.447760 
0.694500 -0.768710 0.002746 
0.287980 0.864060 -1.158500 
-0.822720 0.888130 -0.046985 
-0.573400 -0.315240 -0.410370 
0.650940 0.038977 -1.333900 
-0.372320 1.605700 0.086619 
-0.812760 0.601080 -0.277590 
-0.117260 -0.715980 -1.126300 
0.358140 1.210500 -0.805880 
0.415120 0.219070 -0.953520 
0.701780 -0.121630 -1.197300 
0.301140 0.645510 -0.970500 
0.514580 0.082894 -1.311500 
0.428680 1.135900 -1.560300 
0.711360 1.095200 -0.213860 
0.566420 -0.293570 -0.917750 
-0.728290 -0.113040 -1.166800 
0.071800 -1.233500 -0.654890 
-0.533680 -0.910900 -0.336200 
0.328900 0.923310 -1.391100 
0.239890 1.407100 -0.175640 
0.344550 0.430080 -0.916540 
-0.008260 1.685200 0.023413 
0.871900 -0.133870 -0.107880 
-0.038834 -0.841300 -1.264800 
0.357320 0.349470 -1.150600 
0.425940 -0.919080 -0.076468 
-0.359230 -1.086300 -0.339490 
-0.131780 -1.222100 -1.099700 
0.635440 -0.683400 -0.145760 
-0.701090 0.110810 -0.421360 
-0.157770 -0.641120 -1.510900 
0.185520 -1.176900 -0.883450 
-0.005748 -1.429400 -0.219630 
-0.639820 0.896100 -0.235340 
-0.080427 -1.245300 -0.325910 
0.748380 -0.665880 -0.000650 
-0.467980 -1.365300 -0.267640 
0.626330 -0.346370 -1.239400 
-0.608070 -0.043505 -0.600370 
0.401830 1.016000 -1.637900 
0.565020 -0.282440 -0.565140 
0.461180 -0.872720 -0.505140 
0.706050 0.041076 -1.112200 
-0.147630 1.369900 -0.051306 
-0.737710 0.138550 -0.241840 
0.489460 1.129000 -0.921280 
0.471020 1.129600 -1.290700 
-0.053526 -0.936780 -0.885640 
-0.541770 -1.005300 -0.331030 
-0.269130 -0.520420 -0.822630 
-0.469080 -1.151500 -0.310070 
1.065100 -0.140990 -0.038885 
-0.079373 -0.764970 -1.474100 
-0.216070 -1.126200 -0.702030 
-0.517020 -0.168760 -0.808610 
0.649130 -0.150170 -1.028500 
0.355030 1.671200 -0.107380 
0.592690 -1.061200 0.102740 
0.762070 -0.085464 -1.413700 
0.735250 -1.100000 0.123920 
-0.036124 -0.999450 -1.234300 
-0.589140 0.727780 -1.095400 
-0.582670 1.168600 -0.829320 
0.489160 0.346530 -0.553550 
0.401450 0.452900 -0.663480 
-0.249240 1.239600 -0.181330 
0.917650 -0.078822 -0.105320 
0.114120 -1.135400 -0.626350 
0.639450 -0.416680 -0.257780 
-0.698880 0.609540 -0.596680 
0.332240 0.652070 -0.746660 
0.719880 0.024696 -1.364500 
-0.344700 -1.275000 -0.270430 
-0.931970 0.469220 -0.165240 
-0.819190 0.480320 -1.000100 
-0.104910 -0.822610 -0.745060 
0.962460 0.029151 -0.129050 
0.636390 -0.940750 0.066006 
0.616760 0.275090 -0.425050 
0.624850 0.520550 -0.371490 
0.941490 0.226450 -0.211740 
-0.735640 1.131800 -0.179690 
0.412470 0.957530 -1.654000 
0.618420 -0.700840 -0.960990 
0.647950 -0.400130 -1.228000 
0.244760 -1.638900 0.055699 
0.515630 0.126900 -0.736470 
0.327260 0.860860 -0.664410 
0.029872 -1.188600 -0.579430 
0.702720 0.045939 -1.030300 
-0.462140 -0.330900 -0.600580 
-0.935650 -0.290180 -0.118120 
0.087248 -1.165000 -0.336130 
-0.246700 1.215000 -0.234620 
0.733100 0.022673 -0.708170 
0.107780 -1.267100 -0.153020 
0.680270 -0.592270 -1.095800 
0.621050 0.047942 -1.566000 
-0.100700 -1.045300 -1.165400 
-0.766000 1.106600 -0.079634 
-0.495580 1.318200 -0.002890 
-0.053305 -1.045600 -1.513500 
0.851640 0.001925 -0.234570 
0.319670 0.791860 -0.705130 
0.402110 0.796390 -0.512860 
0.287150 0.865910 -0.879050 
-0.521360 -1.272900 -0.303330 
-0.173580 -0.942100 -0.537730 
-0.856580 0.516530 -0.389180 
-1.070700 0.069610 0.010631 
-0.767150 0.745800 -0.141200 
0.107460 -1.191000 -1.347600 
-0.695110 0.607770 -0.637240 
0.392230 1.239000 -0.634010 
0.485060 1.192900 -1.029800 
0.403680 0.986930 -0.512200 
-1.099600 0.601430 0.003735 
-0.651900 0.771180 -0.286340 
0.463840 0.866230 -0.413190 
0.299610 0.644690 -1.018100 
0.530120 1.242200 -0.551940 
-0.604480 -0.347620 -0.361930 
0.384450 1.036600 -0.881580 
0.473130 1.043000 -0.414870 
0.337380 -1.585700 0.134650 
-0.646790 1.130200 -1.166100 
0.502030 1.188200 -0.838880 
-0.069573 1.683000 0.039360 
0.667020 -0.580890 -0.121180 
0.508170 1.502100 -0.153880 
0.490570 0.869210 -0.384630 
-0.578840 0.894820 -0.850530 
-0.467670 -0.272110 -1.086300 
-0.584520 1.226700 -0.875210 
-0.634850 0.765660 -0.327010 
-0.698300 0.219550 -0.438960 
0.551650 -0.322420 -0.766570 
-0.236420 -0.585990 -0.783660 
0.755750 -0.022323 -1.348700 
-0.364190 1.224600 -0.153610 
0.449260 -0.863580 -0.458030 
0.447470 1.072700 -1.392200 
-0.171150 -1.149500 -1.275200 
-0.453450 1.681100 0.086419 
0.322470 0.495290 -1.159000 
0.708820 -0.104830 -0.964940 
0.431510 1.229700 -1.130700 
0.334400 1.001000 -1.192900 
-0.675750 -0.812050 -0.301940 
0.071880 -1.513700 -0.151080 
0.687210 -0.192700 -0.274040 
0.375210 0.727930 -0.586410 
0.688700 0.027819 -1.642000 
1.098100 -0.210370 -0.021107 
0.052755 1.229700 -0.952840 
0.401720 -0.874750 -0.512720 
0.605920 -0.281810 -1.206900 
0.644920 -0.151510 -0.651400 
0.375210 0.366170 -0.825560 
0.626440 1.232000 -0.280320 
-0.753240 -0.398930 -0.237800 
-0.629090 -0.022985 -0.761050 
0.292640 -0.954580 -0.178070 
0.559790 -0.629090 -0.861840 
0.346950 0.420210 -1.305100 
0.526790 1.183600 -0.660890 
-0.804240 0.554390 -0.665150 
0.553750 -0.895010 -0.593410 
0.604200 -0.746410 -0.500320 
0.619430 -0.176710 -0.854140 
0.304330 -1.220200 -1.104200 
0.065307 -1.251100 -0.927820 
0.646720 -0.782230 -0.869630 
-0.157430 -0.863180 -0.597870 
0.449160 1.075400 -1.045600 
-0.613300 0.662230 -1.216900 
1.063100 0.089467 -0.122380 
-0.618030 0.742190 -1.316800 
0.166720 1.162300 -1.112600 
-0.382240 -0.343590 -0.891020 
0.700610 0.048008 -0.989590 
-0.675690 -1.006100 -0.324230 
0.469970 0.407560 -0.554890 
0.830290 1.146400 -0.210440 
-0.883640 1.102700 0.010485 
-0.666960 -0.717630 -0.294840 
-0.633680 -0.223600 -1.344900 
-0.177270 -1.198300 -1.188200 
-0.094860 -1.000900 -0.819440 
-0.891970 -0.203560 -0.099728 
-0.019782 -1.179300 -0.787870 
0.637860 -0.826250 -0.641010 
0.195620 1.428000 -0.187150 
0.138380 1.299500 -0.513740 
0.401100 -1.060100 0.042520 
-0.567190 1.374700 0.036229 
-0.557470 -1.124100 -0.324240 
-0.054429 -1.307700 -1.607300 
-0.717880 -0.110090 -0.229870 
-0.853150 0.658570 -0.120560 
0.385760 1.244400 -1.598500 
0.542060 -0.602710 -0.506250 
0.255900 -1.063100 -0.783570 
-1.007800 0.228720 -0.017758 
-0.117230 -1.039800 -1.080300 
-0.501010 1.599700 0.087198 
-0.024831 -0.899830 -1.577300 
-0.054047 -0.862960 -0.918450 
0.557300 1.310600 -0.328850 
-1.158100 0.940140 0.024735 
-0.785560 0.639140 -0.229040 
-0.164170 -0.643510 -1.334900 
-0.150970 -1.395400 -0.169770 
-0.750570 0.342470 -0.744650 
0.327840 -1.175800 0.084231 
0.488990 1.363200 -0.235660 
-0.592450 0.700140 -0.838220 
-0.004773 -1.267500 -1.462000 
0.811680 0.874490 -0.249250 
-0.117340 -1.209500 -1.019800 
0.421930 0.227680 -0.864610 
-0.141840 -1.233000 -0.573320 
-0.177900 -1.144600 -1.232300 
-0.945070 0.310850 -1.169400 
-0.192200 1.251500 -0.187180 
0.704530 0.043623 -1.071100 
-0.916340 0.985710 0.010092 
0.666540 -0.174250 -1.368200 
-0.624440 -0.089528 -0.419910 
-0.326830 -1.460700 -0.183740 
0.309720 0.721460 -0.790000 
0.085604 -1.310000 -0.962620 
-0.478130 1.224800 -0.123350 
0.171160 -1.232400 -1.432500 
0.522520 -0.855870 -0.086582 
0.741060 0.015697 -1.495400 
0.446670 1.071900 -0.882990 
0.383530 -1.447400 0.177780 
-0.727840 -0.609510 -0.268730 
0.411760 0.422270 -1.557200 
0.031871 -1.469100 -0.224880 
-0.104560 -1.004000 -0.780610 
-0.235900 -0.518890 -1.499100 
-0.158290 -1.199700 -0.863230 
0.679420 -0.416500 -0.190300 
-0.202790 -1.140600 -0.975250 
-0.188170 1.196500 -0.352970 
0.441480 1.183300 -1.405700 
0.215700 -1.237000 -0.892580 
0.144660 -1.065700 -0.254400 
-0.081681 -1.200000 -0.677820 
0.486410 0.742770 -0.421310 
0.744680 0.039035 -0.553790 
0.518760 0.872850 -0.358380 
-0.307460 1.240100 -0.152760 
-0.337640 -0.399770 -1.278000 
0.037704 -1.202400 -1.246200 
1.149800 -0.084918 -0.060237 
0.465010 0.260730 -0.659220 
0.355170 -1.264000 -1.255700 
-0.599190 0.688950 -0.673940 
-0.433100 1.589000 0.088102 
-1.031500 -0.325570 -0.116490 
-0.597870 0.753940 -0.453470 
0.818050 0.031524 -0.322180 
0.570910 0.094590 -0.698220 
-0.248370 -0.522870 -1.244200 
-0.154540 -0.641570 -1.556700 
1.031100 -0.077637 -0.061687 
0.344220 1.585500 -0.107900 
0.043584 1.341100 -0.843510 
0.833730 0.039835 -0.287630 
0.294790 0.941420 -0.923660 
0.762900 0.987910 -0.230250 
-0.792380 0.110030 -0.145650 
0.147450 -1.394900 -0.108340 
0.513950 0.296580 -1.628100 
0.823240 -0.564340 0.008785 
0.340730 0.427910 -0.962520 
0.427620 0.644620 -1.654800 
-0.554240 -0.112650 -0.644460 
0.703170 0.368460 -0.348050 
-1.028700 0.154900 -0.001279 
0.551820 -0.956660 -0.724870 
-0.572390 -1.049500 -0.327620 
0.722370 0.090466 -0.480230 
0.642870 -0.293050 -1.342000 
-0.634290 1.206800 -0.730230 
-0.919980 0.271480 -1.061500 
-0.481190 -0.247980 -0.688580 
-0.816600 0.560000 -0.474560 
0.024735 1.284500 -0.966570 
0.553140 -0.485630 -0.440530 
-0.374990 -0.354800 -1.149700 
-0.921570 0.219810 -1.045300 
-0.552550 -0.236740 -1.183400 
0.287860 0.789320 -1.162700 
0.420400 1.444900 -0.160520 
0.171370 -1.259700 -1.505300 
0.381130 0.281020 -1.049700 
0.376070 -0.863390 -0.330060 
0.590840 -0.857830 -0.568660 
0.777290 0.062842 -0.404600 
0.611880 -0.754580 -0.552730 
0.603320 -0.729160 -0.217380 
-0.139690 -1.019000 -0.669500 
1.111700 -0.021574 -0.075997 
-0.460790 -0.254570 -0.864510 
0.300350 0.791940 -0.790380 
0.111190 -1.118400 -0.254200 
0.405540 0.380970 -0.701180 
-0.533410 -0.157760 -0.885670 
-0.707300 0.543670 -0.962200 
-0.231330 -0.567170 -0.866050 
0.567870 0.052912 -1.166700 
-0.377390 -0.362780 -0.809050 
1.128500 -0.286160 -0.007064 
0.457020 0.142960 -1.181300 
0.061772 -1.252100 -0.967090 
0.345760 0.565510 -1.465400 
-0.115070 -0.718410 -1.083500 
-0.640840 0.636500 -0.634410 
0.434940 0.207040 -1.381400 
-0.219940 -1.322700 -0.243030 
-0.136450 -1.163300 -1.489200 
-1.015600 0.826430 0.019644 
0.762590 -0.010609 -0.545800 
-0.971370 0.415940 -0.090823 
0.163920 -1.094900 -0.145920 
0.481240 0.499850 -1.687500 
-0.720520 0.255620 -0.699670 
-0.855660 0.325320 -0.150240 
0.526860 0.685700 -0.400190 
-0.304580 1.166000 -0.427210 
0.318970 0.722310 -0.746960 
-0.765530 0.511210 -0.984250 
0.205250 1.190400 -1.236100 
-0.787920 0.343800 -0.269940 
0.366560 0.347240 -1.299100 
-0.501410 -0.391720 -0.474210 
-0.847610 0.055985 -0.848770 
-0.078472 -0.765780 -1.430600 
0.337880 1.196900 -0.994940 
0.795690 -0.189040 -0.141370 
-0.128850 -1.268400 -1.352200 
0.748290 0.010788 -1.540500 
0.753690 0.009150 -1.630300 
0.142770 1.320900 -1.290500 
0.356310 0.352210 -1.053700 
0.093780 1.275700 -0.697730 
0.279080 1.365200 -0.186010 
-0.276090 -0.482460 -1.033300 
-0.155550 -1.228100 -1.627100 
0.240520 -0.990380 -0.197800 
0.373860 0.493110 -1.513100 
-0.308050 -0.680900 -0.537810 
0.834070 -0.777120 0.078153 
-0.772840 0.934420 -0.070204 
0.051989 -1.250100 -1.046800 
0.733280 0.097293 -0.443910 
0.198370 -1.293000 -0.531430 
0.079407 -1.310300 -0.807290 
-0.195080 1.198700 -0.548890 
0.780870 0.338080 -0.307460 
0.188240 -1.237400 -0.802550 
-0.117400 -0.702760 -1.560600 
0.595310 0.237670 -1.684600 
-0.716780 0.728390 -0.213270 
-0.315770 -0.500750 -0.701660 
-0.797850 0.023264 -0.840920 
0.873000 0.521170 -0.297650 
0.113070 1.681200 -0.014694 
-0.022816 -1.175400 -0.629670 
0.392050 0.293600 -0.867010 
0.401740 1.217300 -1.380800 
-0.338760 -0.398390 -1.319100 
-0.695980 -0.099418 -1.104500 
0.387270 0.289600 -0.911420 
-0.488880 -0.940610 -0.345780 
0.078460 1.390100 -0.322140 
-0.173870 -1.328500 -0.224140 
-0.046975 -0.934510 -0.927380 
-0.563290 0.811290 -0.574020 
0.582650 -0.324360 -0.457640 
-0.678290 0.518880 -1.157600 
-0.502120 -0.796900 -0.353840 
-0.613000 -0.033194 -0.664040 
-0.660350 1.198200 -1.196400 
0.442230 1.038000 -0.485210 
-0.192310 -0.616530 -0.909330 
0.566160 -0.666000 -0.593730 
0.597160 -0.590430 -0.972020 
0.072822 -1.302000 -0.655660 
0.326150 0.638950 -1.415100 
0.666400 -0.821530 -0.816250 
0.136200 -1.314300 -0.164110 
0.708620 0.035524 -1.195100 
0.579680 0.094986 -1.671300 
0.326720 1.197500 -1.114400 
0.560000 0.303010 -1.661100 
0.379250 -0.862430 -0.385360 
0.378070 1.072900 -1.658400 
1.064200 0.189230 -0.173900 
0.558610 -0.399530 -0.846180 
1.185700 -0.153330 -0.047430 
0.528060 -0.564300 -0.577090 
0.732020 -0.246480 -0.183900 
0.285660 0.790470 -1.114100 
-0.562060 0.880400 -0.729240 
0.102950 -1.189200 -1.308500 
0.744260 -0.066982 -1.093100 
0.582650 -0.220830 -0.553030 
0.705460 0.722200 -0.294120 
-0.369870 -0.820270 -0.420810 
-0.767410 -0.484180 -0.241710 
0.613500 -0.954250 -0.736080 
-0.078671 -0.997000 -0.899120 
1.110500 -0.081724 -0.056290 
0.038415 -1.193300 -0.780000 
0.573440 -0.381350 -0.468680 
0.522310 0.135020 -0.695850 
0.268530 1.149100 -0.516060 
0.275990 -1.170000 -1.047900 
-0.734020 0.295390 -0.755670 
-0.572160 1.360900 -0.777900 
0.346170 0.492500 -1.411600 
0.775470 0.001906 -0.469390 
-0.806810 0.820730 -0.075551 
0.768460 -0.004550 -0.507450 
-0.614180 1.012400 -0.304140 
0.331990 -0.905860 -0.223640 
-0.119640 -0.965600 -0.651550 
0.701150 -0.119010 -1.158600 
-1.076500 0.912000 0.030701 
1.024700 -0.137990 -0.044020 
-0.563770 1.267100 -0.468640 
-0.979750 -0.100920 -0.031769 
-1.119900 0.667400 0.015730 
-0.637670 -0.021384 -0.518500 
-0.576640 1.047500 -0.590050 
0.381780 0.794710 -0.548390 
0.746630 -0.012152 -1.184200 
0.888180 0.112390 -0.215200 
0.326130 1.003100 -0.967270 
0.283460 0.791940 -1.018100 
-0.815580 -0.777170 -0.283980 
0.705430 -0.126060 -1.274800 
0.423120 0.206150 -1.284200 
0.401250 1.029200 -1.362200 
0.853220 -0.946640 0.108560 
0.077512 1.333700 -0.699430 
0.343950 0.918160 -1.437800 
-0.248300 -0.520170 -1.285800 
0.457340 1.131100 -1.423700 
0.114370 1.222600 -0.656280 
-0.132570 -1.262500 -1.309400 
0.236510 -1.327200 -1.137800 
0.455150 -1.024100 0.042291 
0.363270 0.359030 -0.914000 
0.582830 -0.217400 -0.829280 
0.391850 -0.931660 -0.639490 
-0.505940 -1.223600 -0.303800 
0.108110 -1.110700 -0.292020 
0.472400 0.426180 -1.645300 
1.168100 -0.293860 -0.011889 
0.416640 0.962360 -1.605800 
0.402970 0.778180 -1.598700 
0.502100 0.092519 -1.038400 
0.657230 -0.810610 -0.780230 
0.357340 0.354030 -1.006200 
-0.676780 0.713900 -0.291860 
-0.553350 0.874820 -0.645630 
0.071339 -1.368500 -0.580510 
0.198780 -1.136900 -0.042204 
-0.597120 0.690820 -0.716100 
0.010553 -1.205400 -0.460650 
-0.811820 0.079972 -0.791300 
0.092313 1.175200 -0.897040 
0.113760 -1.222400 -1.462800 
0.346450 0.992520 -0.710670 
0.541760 -0.820680 -0.374830 
0.582270 0.571140 -0.387950 
0.454710 1.073300 -0.649290 
0.930550 0.650920 -0.292480 
-0.893050 -0.136320 -0.076909 
-0.472030 1.310100 -0.683580 
-0.540570 -0.189270 -0.556030 
0.309040 0.791830 -0.747280 
-0.705610 0.169180 -0.467340 
-0.340670 -0.423080 -0.774830 
0.564670 -0.387040 -0.506870 
0.646550 0.096453 -0.586940 
0.354470 0.990840 -0.669500 
0.801420 0.292150 -0.289980 
1.134800 0.088083 -0.125460 
-0.574160 1.246300 -0.214490 
-0.175530 -1.268600 -0.362970 
-0.593420 0.973800 -0.980710 
0.574850 -0.775050 -0.256100 
-0.646320 0.811540 -1.376100 
0.600070 -0.471520 -0.299260 
0.673120 -0.866340 -0.771220 
0.413150 0.212920 -1.045700 
-0.759930 0.992990 -0.067874 
0.556420 -0.339870 -0.844950 
-0.656070 0.642180 -0.508130 
0.743820 -0.002892 -1.063600 
0.189140 -1.311800 -1.145200 
0.214660 -1.256300 0.059377 
-0.177720 -1.193700 -1.145400 
-0.419600 1.528600 0.080189 
-0.246900 1.176100 -0.457130 
0.722850 -0.132180 -1.431700 
-0.264730 -0.798790 -0.509920 
-0.203510 -0.593970 -1.121800 
-1.080800 0.658670 0.009059 
0.297730 0.863770 -0.790890 
0.224460 -1.350900 -1.067100 
0.465610 0.608300 -0.488800 
-0.616410 1.263400 -0.393760 
0.682720 -0.305300 -0.232430 
0.630150 -0.201110 -0.389580 
0.628430 0.066041 -0.826260 
0.488110 -0.897910 -0.053347 
0.962530 0.374800 -0.270200 
-0.762970 -0.815170 -0.294180 
0.689500 1.027600 -0.232090 
0.201020 1.209900 -1.273400 
-0.852330 0.443750 -0.935700 
0.015583 1.423900 -0.073642 
0.899600 -0.191760 -0.068244 
0.506060 -0.988220 0.039872 
-0.817000 1.073100 -0.022276 
-0.120380 -0.703350 -1.426100 
-0.234160 -0.687990 -0.633240 
0.219610 -1.288200 -0.770060 
0.317510 1.201200 -1.195700 
0.620290 -0.396230 -1.165300 
0.745720 -0.009180 -1.143900 
0.306370 0.936360 -0.791980 
-0.722450 -0.176670 -0.228170 
-0.112420 -1.277500 -1.578000 
0.319150 0.566440 -1.312600 
-0.657300 -0.180460 -1.186700 
0.584440 -0.209690 -0.788840 
1.181900 0.031513 -0.108300 
0.372810 0.347180 -1.349300 
0.223230 -1.348300 -0.739160 
0.375420 0.988200 -0.589080 
-0.804660 0.365720 -0.822700 
-0.826610 1.015300 -0.021052 
-0.055633 1.415300 -0.732970 
0.601200 -0.181240 -0.623780 
0.577950 -0.528800 -0.932750 
0.577810 -0.698550 -0.732640 
-1.122400 -0.140900 -0.032805 
-1.122900 0.413640 -0.004544 
0.549080 -0.365890 -0.693770 
1.088800 -0.278730 -0.004444 
-0.206810 -0.587850 -1.205400 
-0.291580 -1.518000 -0.164970 
0.608360 -0.315290 -0.379890 
-0.676160 0.599730 -0.831150 
-0.756440 1.050800 -0.070169 
-0.261820 1.692800 0.074736 
0.163740 1.502100 -0.099482 
0.407570 1.026300 -1.407500 
0.310610 0.640230 -1.313900 
0.818840 0.139730 -0.281690 
-0.023894 -1.651700 -0.100450 
-0.865700 0.564710 -0.244820 
0.390060 1.040100 -1.138400 
0.604100 1.215900 -0.337590 
0.544480 -0.615790 -0.802190 
0.426710 1.022600 -1.545400 
-0.153820 1.416600 -0.012812 
0.371840 0.587590 -0.664980 
0.541510 0.751720 -0.369830 
0.417490 1.187900 -1.538900 
-1.067800 0.215070 0.000653 
0.102630 1.456900 -0.137370 
0.863110 -0.190250 -0.089465 
-0.125850 -1.094700 -1.309700 
0.415840 0.309270 -0.739800 
0.304500 0.713250 -1.313100 
0.299690 0.643310 -1.115400 
0.688020 0.248440 -0.363810 
0.655960 0.037104 -1.377900 
0.391440 0.275390 -1.292000 
-0.357510 -1.215600 -0.298410 
0.410270 1.253000 -0.570280 
0.773180 -0.030961 -1.477200 
-0.319530 -0.418520 -1.071900 
-0.240910 -0.537220 -1.077900 
0.337880 0.422490 -1.155200 
-0.940460 0.627070 -0.067682 
0.761030 -0.024453 -1.390800 
0.165840 -1.410500 -0.225630 
0.380350 0.567010 -1.564900 
0.541010 -0.555070 -0.788880 
0.953780 -0.394620 0.011858 
0.699440 1.277200 -0.197430 
0.088469 -1.171700 -0.297960 
0.362200 0.347690 -1.249300 
0.461320 1.234900 -0.858840 
-0.025859 -0.905920 -1.534200 
-0.329940 1.711900 0.080274 
0.780280 -0.427160 -0.070675 
-0.243420 -0.516620 -1.412200 
0.349570 1.266500 -0.278770 
-0.493300 1.409000 -0.849660 
-0.544670 -0.154560 -0.924420 
-0.202530 1.338400 -0.065470 
-0.684410 -0.572110 -0.282470 
0.433620 1.183700 -1.449700 
-0.422230 1.272200 -0.686770 
0.631480 0.078144 -0.704660 
-0.078318 1.741800 0.034685 
0.950160 0.276020 -0.231100 
0.338310 0.426160 -1.009500 
0.501420 0.095236 -0.993730 
0.284060 -0.983360 -0.617030 
0.458160 0.539640 -0.522280 
0.573050 -0.966400 0.054384 
-0.957800 0.040051 -0.017963 
0.756930 -0.083573 -1.372400 
0.101300 -1.371700 -0.873620 
-0.173060 -1.461300 -0.144990 
-0.050901 1.288300 -0.375480 
-0.511830 -0.176270 -0.770580 
0.487460 1.131200 -0.999890 
-0.560970 -0.114080 -0.878690 
0.522400 -0.870820 -0.508430 
0.268040 -1.286000 -1.341600 
-0.391770 1.697900 0.084826 
-0.881220 0.518320 -0.279400 
-0.150170 -1.286300 -0.279140 
0.628030 -0.166830 -0.773960 
0.693000 -0.543670 -1.150600 
-0.888590 -0.269640 -0.127300 
-0.911270 0.058232 -0.040229 
0.462660 1.292300 -0.421080 
-0.671910 1.490500 0.067178 
-0.302150 1.172300 -0.343800 
0.666100 0.960530 -0.254000 
0.196040 -1.233600 0.030686 
0.414850 -0.884750 -0.558180 
0.037444 1.278200 -0.905930 
-0.568040 0.820910 -0.744780 
-0.631060 1.052400 -0.377200 
0.323610 -1.262600 -1.169100 
-0.806580 -0.363350 -0.200680 
0.587930 -0.835250 -0.046278 
-0.075328 -0.878330 -0.791910 
-0.688270 0.604790 -0.716830 
0.330400 -0.887240 -0.426250 
-0.722760 -0.449870 -0.260110 
-0.824730 -0.608440 -0.246210 
-0.409450 -0.317030 -1.058500 
-0.993880 1.017500 0.026994 
0.677180 -0.134510 -0.794490 
0.134680 -1.466000 -0.096800 
-0.690310 0.048514 -0.368620 
-0.058817 -1.047900 -1.380400 
0.852900 -0.311770 -0.055169 
0.304680 1.149500 -0.884920 
0.652640 -0.348680 -1.302700 
-0.706280 0.263440 -0.638520 
0.388770 1.040700 -1.094600 
0.908570 0.837460 -0.261940 
0.947480 0.127870 -0.175100 
0.160920 -1.415800 -0.431890 
0.801590 -0.023818 -0.340540 
0.401950 -1.015600 -0.739430 
-0.075710 -0.771360 -1.259100 
1.118700 0.139520 -0.150420 
0.514030 -1.162600 0.129360 
-0.915070 0.856440 -0.005948 
0.907860 -0.133800 -0.085903 
0.639950 0.089626 -0.625600 
-0.641490 1.254700 -0.687620 
-0.583030 -0.061643 -0.690750 
-0.117380 1.589200 0.047244 
-0.630270 -0.447300 -0.320850 
0.117680 -1.083700 -0.511060 
0.284380 0.866710 -0.924090 
0.572730 -0.275970 -0.524460 
-0.009272 -1.251900 -1.378600 
-0.592270 1.280900 -1.083800 
0.158390 1.215200 -1.221200 
0.683480 -0.361200 -0.212480 
0.758960 -0.305020 -0.134510 
0.474970 -0.883580 -0.549200 
0.676730 -0.175570 -1.442500 
-0.066836 -0.872450 -0.833240 
0.610080 1.538800 -0.164120 
-1.028100 0.588950 -0.026785 
-0.551140 -0.117890 -0.840940 
-0.710050 -0.366650 -0.263230 
0.404510 1.075600 -1.619800 
0.622650 -0.256520 -0.364470 
-0.354380 -0.559360 -0.563070 
0.186620 -1.039800 -0.626030 
-0.520130 1.206900 -0.266190 
0.451340 0.284820 -1.539600 
0.729140 -0.135610 -1.511300 
-0.373690 1.248800 -0.702220 
-0.139200 -0.919610 -0.602910 
-0.810620 -0.031989 -0.116680 
0.398370 0.298210 -0.823550 
0.230950 -1.172900 0.020833 
0.299440 0.714400 -1.263500 
-0.341550 -0.392080 -0.897810 
0.553190 0.439670 -1.705300 
-0.099019 1.252300 -0.523850 
-0.153100 1.240900 -0.613130 
0.900410 0.017469 -0.174280 
-0.588610 -0.805480 -0.321070 
0.115770 -1.127200 -0.216320 
-0.252810 1.270000 -0.130370 
0.294990 1.223900 -1.360200 
0.476020 -1.325700 0.175250 
-0.164510 -0.649930 -1.207700 
0.293400 1.149000 -1.001400 
-0.718330 0.306230 -0.692340 
0.047766 -1.249400 -0.459900 
0.734240 -0.139340 -1.550100 
0.514950 0.153120 -1.556700 
-0.343830 -0.435210 -0.735620 
0.228820 1.139500 -1.082100 
-0.808350 0.224480 -0.153490 
0.612370 -0.186100 -0.932820 
0.393030 1.032900 -0.717680 
-0.996500 0.472850 -0.076267 
-0.379040 -1.172800 -0.307120 
0.437660 0.534150 -0.555280 
0.043082 -1.236000 -1.126300 
0.690710 0.061970 -0.709760 
-0.653100 1.314500 -0.056241 
-0.203020 -1.094000 -0.848450 
-0.612460 1.311800 -0.750300 
-0.663470 0.645440 -0.465780 
-0.937930 0.363310 -0.097821 
0.744700 -0.052873 -0.936140 
-0.893360 0.368590 -0.151310 
0.334680 0.996280 -0.794520 
0.153050 -1.361500 0.024239 
0.244480 1.122200 -0.964690 
-0.883440 -0.336490 -0.156080 
0.690830 -0.529380 -0.113310 
0.393720 0.375500 -0.741410 
0.323240 0.498370 -1.012600 
0.505310 0.851920 -1.704700 
0.341360 1.198100 -0.955960 
0.534910 -1.280000 0.165440 
0.600820 -0.438460 -1.055700 
0.439440 0.900050 -1.663800 
-0.680030 -0.415380 -0.286390 
-0.649380 1.434300 0.058321 
0.832260 -0.006598 -0.268440 
0.463890 1.268100 -0.596250 
0.616170 -1.260400 0.155860 
-0.577170 0.751170 -0.626380 
0.340940 0.860310 -0.624180 
0.701330 -0.116210 -1.119900 
0.707340 0.038339 -1.153500 
0.793390 0.015958 -0.394470 
0.945560 -0.134420 -0.067731 
0.464660 -0.878830 -0.105340 
1.048800 -0.271900 -0.005587 
0.680480 -0.344710 -1.363600 
0.216790 1.160200 -1.159700 
-0.841810 1.145900 -0.008473 
-0.637420 0.636110 -0.675900 
0.753230 1.048000 -0.219070 
-0.718190 -0.682590 -0.278800 
0.109560 1.280400 -0.635970 
0.331340 -1.065600 -0.807860 
-0.640230 -0.012878 -0.578100 
-0.132500 -1.164900 -1.533400 
0.608090 -0.209360 -1.123900 
-0.523540 -0.299610 -1.481900 
-0.176480 -1.077600 -1.095600 
-0.105410 -0.958670 -0.688010 
0.371940 0.710670 -1.561900 
0.541950 -0.455570 -0.585500 
0.034188 -1.186400 -0.619820 
0.754730 -0.082479 -0.394000 
0.624450 -0.225570 -1.270500 
-0.428280 1.275300 -0.058627 
0.364710 -1.026700 -0.005809 
-0.827260 0.603730 -0.238780 
-0.440210 -1.407600 -0.246720 
0.652740 -0.232000 -1.410400 
0.082042 1.196300 -1.007100 
0.604290 -0.730980 -0.858000 
0.510410 0.119590 -0.777840 
0.389970 1.220700 -1.467200 
0.409040 0.905320 -1.571400 
0.652440 -0.147450 -0.990000 
-0.384720 -0.354390 -1.476700 
-0.335520 -0.402160 -1.237100 
-0.567750 1.181800 -0.923270 
0.638610 -0.156660 -0.692470 
-0.546240 0.939620 -0.668600 
0.178210 -1.349500 -1.074200 
0.119030 -1.604300 -0.034345 
0.047344 1.289100 -1.115500 
0.563420 0.081125 -0.780280 
0.671220 -0.646700 -1.060300 
0.113140 1.167800 -0.752510 
0.654870 0.103990 -0.549010 
-0.423240 1.239200 -0.107940 
0.353510 0.638850 -1.516100 
0.751000 -0.026262 -0.662060 
0.118580 1.188400 -1.098000 
0.368440 0.362320 -0.869280 
0.438780 0.423810 -1.603900 
0.090135 -1.284700 -1.081700 
-0.507920 -0.205230 -0.660180 
-0.361870 1.172900 -0.292430 
-0.790220 0.597120 -0.356970 
-0.435690 1.318400 -0.015028 
0.106180 -1.369700 -0.912140 
-0.424900 -0.947720 -0.362390 
-0.736890 0.166550 -0.610620 
0.460890 0.738960 -0.450420 
-0.120710 -0.709340 -1.253500 
0.569430 -0.234480 -0.635900 
-0.601500 1.009500 -0.341230 
-0.544220 0.938920 -0.627610 
0.327570 -0.949300 -0.604470 
-0.160580 1.262000 -0.661700 
-0.675870 -0.141710 -0.291130 
0.513760 1.097600 -0.396560 
0.096110 -1.443300 -0.331440 
-0.971980 0.634110 -0.041746 
0.830290 0.569560 -0.298210 
0.342570 0.420790 -1.254800 
0.439980 0.987500 -0.440410 
-0.630500 -0.041819 -0.897590 
0.632920 0.153400 -0.472350 
-1.045000 0.533920 -0.031580 
0.634970 0.083526 -0.664870 
0.352750 0.779310 -1.506400 
-0.753080 0.497000 -1.049400 
0.249770 -1.090200 -0.887210 
0.834280 0.946490 -0.237340 
-0.912400 0.675100 -0.060327 
0.641100 0.048505 -1.160500 
0.329370 1.228400 -0.331120 
-0.777760 0.383560 -0.619670 
0.058070 -1.309300 -0.506700 
-0.073496 -0.786860 -1.000500 
-0.513590 1.263800 -0.517010 
0.311650 0.712160 -1.363100 
0.430200 1.268200 -0.509080 
0.893140 -0.252560 -0.051370 
-0.548160 0.998760 -0.608430 
0.644490 0.043653 -1.246500 
0.141140 -1.043100 -0.398050 
0.319140 0.781390 -1.408800 
0.582290 -0.376780 -1.029900 
-0.602270 -0.112990 -0.991250 
-0.125410 -0.753980 -0.783090 
-0.199780 1.379200 -0.824210 
-0.724710 0.202990 -0.290010 
-0.578480 -1.171100 -0.324170 
-0.332020 -0.528640 -0.629320 
0.991030 -0.403120 0.021054 
-0.927930 0.416080 -0.147400 
-0.543850 1.403900 -0.905160 
0.173020 -1.365600 -1.037100 
-0.047411 -1.000900 -1.148700 
0.091875 1.297400 -1.202600 
-0.744690 -0.042952 -1.042700 
0.052427 -1.228800 -1.446900 
-0.677710 0.883690 -1.364300 
-0.052361 -1.000200 -1.106300 
-0.261290 1.223700 -0.690910 
-0.470990 -0.440130 -0.484920 
0.427420 0.232970 -0.821470 
0.472570 0.215980 -1.526400 
0.006021 1.343500 -0.981870 
-0.555680 1.065800 -0.840760 
0.357810 -1.521200 0.161460 
0.305750 -0.998710 -0.663000 
-0.471000 1.189600 -0.237630 
0.252790 -1.100500 -0.025420 
0.241000 1.274400 -1.433900 
-0.602560 -0.132560 -0.437900 
0.458990 0.928700 -0.408060 
0.411600 -1.477500 0.178770 
0.478220 0.290180 -1.586400 
0.917310 -0.387070 -0.001311 
0.462530 0.573440 -1.692100 
-0.401230 -0.322200 -1.016800 
0.143060 -1.260700 -0.386430 
0.187080 1.398300 -0.236360 
0.117200 -1.359300 -0.990100 
0.125320 -1.238800 -0.069770 
0.397510 1.191100 -1.628400 
-0.827770 0.093582 -0.104650 
-0.249440 1.180200 -0.511930 
-0.118840 -0.746170 -0.824220 
-0.250260 1.632000 0.075174 
0.579340 0.046132 -1.345400 
-0.736280 0.054413 -0.671360 
-0.001234 1.339500 -0.256430 
0.767840 -0.074887 -0.355330 
-0.579780 0.750340 -0.583100 
0.582310 -0.246510 -0.986210 
-0.589920 0.751760 -0.496520 
0.300930 0.642630 -1.164600 
0.435040 0.927430 -0.440060 
-0.653830 0.964700 -0.194720 
-0.517460 1.379000 -0.777390 
0.419400 1.034600 -0.560010 
-0.531180 -0.344790 -0.458800 
-1.081000 -0.265780 -0.085318 
0.262990 -1.288100 -1.273500 
0.213980 -1.154100 -0.009874 
0.434340 0.393380 -0.624870 
0.362970 -0.940090 -0.107340 
-0.201250 -1.230700 -0.507940 
0.742450 0.271780 -0.321940 
0.704320 -0.144470 -0.299250 
-0.570300 1.193200 -0.984300 
0.291140 -1.238500 0.100530 
0.736800 -0.189860 -0.203710 
0.715420 0.027186 -1.321600 
-0.019028 -0.920220 -1.313400 
0.203560 1.283000 -1.379600 
0.447910 1.070700 -0.764860 
