0.225210 1.367700 -0.218720 
-1.121600 0.479050 -0.003902 
-0.720280 1.229400 -0.223590 
0.364520 1.229100 -1.226400 
0.616170 -1.260400 0.155860 
-0.637840 -0.234390 -1.384100 
0.090932 -1.179300 -0.259580 
0.767690 0.172450 -0.318180 
0.011046 1.376300 -0.546000 
0.147450 -1.394900 -0.108340 
0.103730 -1.421800 -0.428550 
0.018293 -1.573300 -0.104120 
0.372540 0.515770 -0.703910 
0.118300 -1.406700 -0.597510 
-0.458390 -0.423670 -0.514450 
-0.116550 -1.096800 -1.351600 
0.615420 -0.205100 -0.429810 
-0.689590 0.022389 -0.647610 
0.528780 0.557880 -0.435130 
0.563730 -0.407420 -0.882920 
-0.874990 0.144010 -0.919410 
-0.135970 1.276800 -0.170050 
-0.555440 1.005100 -0.802990 
-0.776160 -0.002789 -0.913990 
-0.129560 -1.037400 -0.996330 
0.384340 1.037800 -0.923370 
-0.859970 -0.324210 -0.161700 
0.044688 1.276800 -0.876570 
0.474260 1.130400 -1.247600 
-0.843100 0.458200 -0.692680 
-0.641150 -0.079792 -1.003100 
-0.081309 1.279300 -0.210630 
0.479550 0.142340 -1.417500 
0.734620 -0.724100 0.012748 
0.563420 0.081125 -0.780280 
0.564670 -0.387040 -0.506870 
-0.022469 -0.989430 -1.412800 
0.688120 -0.127730 -0.714620 
-0.245090 -1.045000 -0.439090 
-0.132570 -1.262500 -1.309400 
0.337440 0.492720 -1.360500 
-0.659210 -0.046010 -0.965880 
-0.753650 0.629520 -0.308350 
-0.467310 1.197300 -0.410860 
-0.838740 0.402140 -0.829740 
0.442830 1.233000 -1.011000 
0.321820 -1.061000 -0.790450 
-0.033831 -0.931430 -1.054900 
0.303940 -1.360600 0.147390 
0.001903 1.394100 -0.915540 
-0.431670 1.296000 -0.036028 
0.693120 -1.238600 0.144240 
0.150720 1.314000 -0.454740 
0.141140 -1.043100 -0.398050 
0.992070 0.084350 -0.137390 
0.753810 -0.061252 -0.532400 
-0.673520 -0.005372 -0.365290 
0.112870 -1.210100 -1.424600 
-0.222750 -0.674800 -0.668570 
-0.462420 -0.756740 -0.379770 
-0.019028 -0.920220 -1.313400 
-0.451690 -0.271500 -0.785280 
0.997340 0.032981 -0.113660 
0.739260 -0.539850 -0.058663 
-1.002800 -0.392000 -0.149950 
0.402560 0.969540 -1.511900 
-0.702710 -0.149820 -1.201400 
0.072822 -1.302000 -0.655660 
1.108100 0.035485 -0.097976 
-1.252100 0.628560 0.002235 
0.610540 -0.213960 -1.161100 
-0.698460 0.952020 -1.345400 
-0.489010 -0.704500 -0.373010 
-0.571430 0.825400 -0.786210 
-0.150150 -1.160100 -1.403000 
0.636570 -0.780090 -0.675220 
0.508920 -1.253600 0.159450 
-0.898880 1.044000 0.010841 
-0.873770 0.103610 -0.870860 
-0.053057 1.566000 0.029129 
0.530370 -0.557490 -0.543400 
0.676470 -0.698000 -0.060502 
0.493920 0.278180 -0.585660 
-0.626520 0.640890 -0.835400 
-0.243730 -0.533230 -1.119700 
0.604900 -0.339050 -1.172700 
-0.024831 -0.899830 -1.577300 
0.324080 1.499400 -0.122750 
-0.577740 0.880000 -0.394000 
0.523180 1.337900 -0.283420 
0.081115 -1.635800 -0.060432 
0.238180 -1.088700 -0.863870 
-0.638690 1.407400 0.048489 
-0.719790 -0.304470 -0.249110 
0.624850 0.520550 -0.371490 
-0.659700 1.091500 -0.439960 
-1.189100 0.186320 0.011241 
0.078460 1.390100 -0.322140 
0.810720 -1.163500 0.123040 
-0.423360 -0.364000 -0.647630 
0.372810 0.347180 -1.349300 
-0.725360 0.301170 -0.724310 
-0.247800 -1.210400 -0.443490 
-1.197700 0.103060 0.010182 
-0.613620 1.166900 -1.092000 
-0.188370 1.192700 -0.381410 
-0.937870 -0.153660 -0.062086 
-0.938010 -0.222010 -0.087776 
0.294240 1.290700 -1.517100 
0.283050 0.867150 -0.969710 
0.300360 0.784750 -1.309600 
-0.869590 -0.193780 -0.108050 
0.674960 -0.545460 -1.127300 
-0.086834 -1.209100 -0.563240 
0.815740 -0.015259 -0.303930 
-0.425340 -1.241200 -0.278770 
-0.712970 0.154710 -0.323250 
-0.388870 -0.346110 -1.272000 
-0.589140 0.727780 -1.095400 
-0.822720 0.888130 -0.046985 
0.393030 1.032900 -0.717680 
0.758850 -0.805750 0.061164 
0.586940 -0.202090 -0.747980 
-0.119900 -0.702730 -1.470300 
-0.881440 0.003613 -0.058810 
-0.581560 1.086700 -0.979600 
-0.984200 -0.169570 -0.053450 
0.583420 -0.427860 -0.988800 
0.552410 -0.400160 -0.583330 
-0.877580 0.319990 -0.124020 
0.623640 1.179400 -0.268080 
-0.161800 1.406700 -0.802310 
0.034188 -1.186400 -0.619820 
0.131170 1.145600 -0.947690 
0.329370 1.228400 -0.331120 
0.243920 -1.058300 -0.759800 
-0.112420 -1.277500 -1.578000 
0.332130 1.003100 -1.147100 
-0.765080 0.350730 -0.335510 
-0.536050 1.249900 -0.094222 
-0.126290 -1.335800 -0.209240 
-0.355240 -0.461930 -0.660650 
-0.557600 -1.027300 -0.328800 
-0.460790 -0.254570 -0.864510 
-0.449220 -0.300240 -1.302500 
0.040195 -1.438100 -0.283330 
0.598010 -0.522730 -0.270570 
0.538700 -0.608590 -0.771420 
-0.708280 0.613760 -0.514540 
0.884660 1.032000 -0.229840 
-0.864130 0.288200 -0.986150 
0.272610 1.226300 -0.322740 
-0.588680 1.285800 -0.878460 
-0.026414 -0.994990 -1.322400 
0.515440 -0.865330 -0.485570 
0.772820 0.444190 -0.316150 
-0.975070 0.813510 0.008157 
0.621050 0.047942 -1.566000 
-0.821210 0.560620 -0.435940 
0.626130 0.643200 -0.343870 
0.447200 1.072300 -1.347000 
-0.389050 -0.411970 -0.655410 
-0.637010 0.581970 -1.140100 
-0.940690 0.574540 -0.105760 
0.695800 -0.473700 -0.135830 
-1.056800 0.839470 0.026552 
-0.132880 1.250300 -0.223860 
0.607820 -0.750320 -0.526750 
-0.781710 0.595600 -0.397110 
-0.263390 1.347600 -0.038476 
0.806280 -0.135720 -0.161830 
0.002106 -1.214900 -0.422500 
0.153050 -1.361500 0.024239 
-0.303110 -0.454850 -0.860680 
0.632390 0.058607 -0.950140 
-0.369820 1.179400 -0.539700 
-0.580370 -0.068219 -0.657070 
0.897630 -0.520530 0.026712 
-0.592460 1.289200 -0.075176 
0.889160 -0.809720 0.093032 
0.581630 -0.239630 -0.947700 
0.785720 -0.366820 -0.088154 
-0.472030 1.310100 -0.683580 
0.000171 -1.228000 -1.051600 
0.795690 -0.189040 -0.141370 
-1.071300 1.051200 0.027769 
0.305700 0.862670 -0.747880 
0.018004 -1.197900 -0.499640 
-0.215000 1.279700 -0.764140 
0.299610 0.644690 -1.018100 
0.640540 1.241300 -0.253990 
-0.036017 1.410200 -0.053346 
-0.703850 0.214990 -0.378280 
-0.656070 0.642180 -0.508130 
-0.829260 0.155940 -0.113650 
-0.672370 0.649340 -0.423500 
0.223230 -1.348300 -0.739160 
-0.555670 0.943560 -0.750110 
0.384380 0.276530 -1.194100 
-0.405120 -0.441240 -0.585770 
0.526110 1.294800 -0.414710 
1.099100 0.089479 -0.121940 
-0.878420 0.971150 -0.004458 
0.387270 0.289600 -0.911420 
-0.154540 -0.641570 -1.556700 
-0.921210 0.186730 -0.050614 
-0.646530 0.702410 -0.374600 
-0.768600 0.156910 -0.693370 
0.732050 0.377620 -0.332760 
-0.749180 0.132080 -0.216260 
0.521740 1.528300 -0.151280 
-0.075710 -0.771360 -1.259100 
-0.642890 1.609000 0.070689 
-0.550690 0.940890 -0.505190 
-0.642580 0.957350 -1.267000 
-0.320530 1.332900 -0.034491 
-0.579780 0.750340 -0.583100 
0.327570 -0.949300 -0.604470 
-0.505940 -1.223600 -0.303800 
-0.173580 -0.942100 -0.537730 
-0.245810 1.205000 -0.261900 
0.074678 -1.367500 -0.615910 
0.504180 1.124900 -0.659180 
-0.391770 1.697900 0.084826 
0.150260 1.452400 -0.166940 
0.643410 -0.363260 -0.282490 
0.957090 0.324950 -0.251790 
1.078400 -0.349770 0.011894 
0.420030 1.260500 -0.539390 
0.383620 0.370570 -0.782910 
-0.379300 -1.106900 -0.327190 
-0.384580 1.362900 0.006218 
0.831800 0.457850 -0.301510 
-0.318480 1.212800 -0.659700 
0.840630 -0.043686 -0.210780 
-0.374970 1.305400 -0.808160 
0.540930 1.141200 -0.448680 
-0.055633 1.415300 -0.732970 
0.544120 -0.493900 -0.765690 
-0.730610 -0.010520 -0.935160 
-0.593930 0.696610 -0.798360 
-0.248370 -0.522870 -1.244200 
0.332370 0.930850 -0.665590 
0.538940 -0.478110 -0.694730 
-0.846480 0.455790 -0.763250 
-0.239340 1.572000 0.067716 
0.418770 0.495090 -1.608700 
-0.547480 1.000400 -0.725720 
-0.713600 0.262960 -0.352260 
-0.663360 -0.260300 -0.303650 
-0.190640 -1.136400 -1.145900 
0.203800 -1.289300 -0.600820 
0.792090 -0.045612 -1.608000 
-1.025500 0.415120 -0.045002 
-0.089918 -1.198400 -0.828950 
0.569830 0.505490 -0.413030 
-0.608850 0.656050 -1.121400 
0.287150 0.865910 -0.879050 
-0.852570 0.427430 -1.032600 
0.529810 -0.876540 -0.530650 
-0.261560 -0.716970 -0.568000 
-0.847700 0.196580 -0.937250 
0.672040 -0.826510 -0.833500 
0.116670 1.528600 -0.054032 
-0.197580 1.299400 -0.111490 
0.902400 0.366470 -0.274720 
0.093168 -1.452600 -0.299980 
-0.718450 -0.160280 -1.269100 
-0.710780 1.213800 -0.312910 
-0.946070 0.684350 -0.035370 
-0.837890 0.512670 -0.610590 
0.171560 1.545100 -0.065661 
-0.622790 1.549200 0.074643 
-0.299770 1.559900 0.074732 
0.712260 0.029945 -1.279000 
-1.159400 0.676100 0.017102 
0.647950 -0.400130 -1.228000 
0.415120 0.219070 -0.953520 
0.284120 -0.923030 -0.450000 
0.474870 0.676190 -0.454720 
0.594860 -0.734450 -0.390660 
0.382170 -1.042800 0.019159 
0.621640 -0.792680 -0.059268 
-0.645130 0.888790 -1.312400 
-0.520130 1.206900 -0.266190 
0.325360 0.565880 -1.363400 
0.389970 1.220700 -1.467200 
-0.494690 -1.320300 -0.286850 
1.105600 -0.144730 -0.038244 
-0.541520 -0.837910 -0.335830 
0.605920 -0.281810 -1.206900 
0.725050 0.150910 -0.375830 
-1.078400 0.537680 -0.013758 
-0.244790 1.189300 -0.317350 
-0.566770 1.112800 -0.768060 
0.186510 -0.998760 -0.426960 
-0.883640 1.102700 0.010485 
0.518760 0.872850 -0.358380 
-0.569250 1.237600 -0.931300 
0.179420 -1.553600 0.037000 
0.801100 0.563260 -0.302240 
0.431270 0.280790 -1.490900 
0.407470 0.842080 -1.585200 
0.381350 1.010000 -1.681400 
-0.551820 -0.932100 -0.331560 
0.755750 -0.022323 -1.348700 
0.052755 1.229700 -0.952840 
0.568300 -0.842040 -0.499800 
0.613310 0.702560 -0.335990 
-0.464300 1.449800 0.061961 
0.300930 0.642630 -1.164600 
-0.835910 0.507780 -0.756240 
0.529850 0.297470 -0.518500 
-0.718190 -0.682590 -0.278800 
0.426710 1.022600 -1.545400 
0.741890 0.549830 -0.316380 
0.167140 -1.408700 -0.499250 
-0.512660 1.386500 -0.796500 
0.157320 -1.079600 -0.674490 
0.031871 -1.469100 -0.224880 
0.752330 -1.032100 0.115570 
0.780390 0.865710 -0.252130 
0.136210 -1.345800 -0.090863 
0.359220 0.348450 -1.199800 
0.154400 -1.226800 -1.244100 
0.205870 1.463300 -0.142600 
0.593390 -0.699550 -0.531540 
-0.219180 -1.136200 -0.667700 
0.462660 1.292300 -0.421080 
0.474980 1.586800 -0.139790 
-0.424110 1.192700 -0.526500 
-0.161230 -0.655020 -1.123500 
-1.021000 0.354760 -0.036243 
0.123530 -1.081800 -0.545440 
-0.148030 -1.243100 -0.501660 
0.816250 1.283600 -0.201760 
0.267300 -1.021300 -0.102360 
0.628030 -0.166830 -0.773960 
-0.040909 -1.277900 -0.283740 
0.345760 0.565510 -1.465400 
0.499800 0.648510 -1.722100 
0.530570 0.143930 -0.656110 
-0.276090 -0.482460 -1.033300 
0.388770 1.040700 -1.094600 
0.566420 -0.293570 -0.917750 
0.744570 -0.056487 -0.975370 
0.239890 1.407100 -0.175640 
-0.827790 0.277240 -0.150910 
-1.175700 0.614980 0.012350 
0.697630 -0.496880 -1.205400 
0.539950 -0.636130 -0.662630 
0.440710 1.276100 -0.479290 
-0.141030 -1.223700 -0.645360 
0.481680 1.449300 -0.167710 
0.588740 -0.328460 -1.103000 
0.341930 1.237700 -1.435700 
0.565010 1.000000 -0.296060 
0.218100 -1.273500 -1.428700 
-0.896090 0.913450 -0.005228 
0.387690 -0.963730 -0.052744 
-0.593880 1.031200 -0.985300 
0.808210 -0.836490 0.086862 
0.034942 -1.660700 -0.082431 
-0.662010 1.197100 -0.611490 
0.589280 -0.265690 -1.098900 
0.628620 -0.764980 -0.805580 
0.363270 0.359030 -0.914000 
-0.721670 0.558030 -0.894660 
-0.597740 1.161600 -0.766420 
0.331220 0.493180 -1.309600 
-0.697580 0.270020 -0.447300 
0.749490 -0.017510 -1.265800 
0.564380 -0.336040 -0.536510 
-0.577070 0.790400 -1.025200 
-0.082117 -1.202200 -0.639670 
-0.617230 -0.287210 -0.358460 
0.287540 -1.040800 -0.729750 
0.585450 -0.776430 -0.170550 
0.328900 0.923310 -1.391100 
-0.176360 -1.063000 -0.722650 
-0.633420 0.829820 -0.280130 
-0.116670 -1.274800 -1.486100 
0.427620 0.644620 -1.654800 
-0.759930 0.992990 -0.067874 
0.228930 1.710800 -0.066750 
0.595220 -0.187780 -0.665360 
-0.927310 0.308970 -0.077801 
-0.380280 -0.974500 -0.368660 
0.565210 -0.242190 -0.677190 
-1.045300 0.287670 -0.015085 
0.087248 -1.165000 -0.336130 
0.231270 1.174100 -0.443430 
0.304680 1.149500 -0.884920 
0.387310 0.275760 -1.242900 
0.614540 1.223500 -0.308390 
0.394640 1.034900 -1.271600 
-0.328140 1.379600 0.004704 
-0.318540 -1.432100 -0.187140 
0.458160 0.539640 -0.522280 
-0.019782 -1.179300 -0.787870 
0.293090 0.719490 -0.924810 
0.404510 1.075600 -1.619800 
0.179910 1.320600 -1.353000 
0.381330 0.279150 -1.097400 
-0.850360 -0.117970 -0.097859 
-0.487050 1.274400 -0.046432 
0.609430 -0.806260 -0.547430 
0.398180 0.711970 -1.608700 
0.526160 -1.005100 0.058538 
-0.103260 1.258900 -0.550790 
-0.013932 1.332500 -0.343560 
-0.174000 -0.875370 -0.565120 
0.321740 0.496160 -1.109500 
-0.130430 1.460200 -0.853330 
-0.728190 -0.052166 -0.217080 
0.634970 0.083526 -0.664870 
0.576290 -0.632980 -0.381340 
0.290170 0.718490 -1.019200 
0.708620 0.035524 -1.195100 
0.062349 1.368400 -0.550060 
-0.465780 1.355200 -0.763780 
0.140140 -1.437800 -0.044162 
-0.588190 -0.257080 -0.408150 
-0.098314 1.449700 -0.005122 
0.493790 -0.846530 -0.387630 
-0.255010 1.287400 -0.105980 
0.839110 1.223200 -0.207930 
0.456510 0.211690 -1.478600 
0.196040 -1.233600 0.030686 
0.631340 -0.575380 -0.181510 
0.604490 -0.677500 -0.266500 
0.458770 0.164680 -0.862840 
0.844000 1.084100 -0.218980 
-1.263600 0.414200 -0.002152 
-0.423240 1.239200 -0.107940 
0.472220 0.141070 -1.370000 
-0.471630 1.271800 -0.616260 
0.233210 1.658500 -0.060547 
-0.001421 -1.315300 -0.287470 
0.381950 0.283350 -1.002800 
0.620290 -0.396230 -1.165300 
0.371840 0.587590 -0.664980 
0.576820 -0.781540 -0.367240 
-0.774230 -0.080005 -0.157640 
0.676130 1.411500 -0.176580 
0.809920 -0.432280 -0.045529 
-0.421850 1.285000 -0.707140 
-1.066300 -0.064528 -0.007162 
-0.614490 0.647850 -0.983750 
0.502100 0.092519 -1.038400 
0.384840 1.235600 -1.554600 
0.077419 1.274100 -0.758680 
0.595310 0.237670 -1.684600 
0.019388 1.364500 -0.431840 
-0.777030 0.385470 -0.550120 
0.375210 0.727930 -0.586410 
0.268000 1.122600 -0.772910 
0.014867 1.368800 -0.489150 
0.311760 0.932310 -1.295800 
-0.601950 0.688040 -0.631360 
-0.117400 -0.702760 -1.560600 
-0.868090 -0.477230 -0.206480 
0.668710 -0.860990 -0.755830 
-0.792030 0.171430 -0.158260 
0.526790 1.183600 -0.660890 
-0.914150 -0.507020 -0.205640 
-0.531180 -0.344790 -0.458800 
0.524730 1.133200 -0.516890 
-0.484980 -0.457120 -0.457090 
0.040093 -1.224400 -1.165800 
-1.098100 0.208200 0.006507 
0.412470 0.957530 -1.654000 
-0.762100 0.043433 -0.749700 
0.284170 0.791350 -1.065800 
-0.604260 1.324100 -0.801750 
-0.653260 -0.054016 -0.375850 
0.351000 0.710300 -1.513200 
-0.664030 1.140400 -1.222400 
0.241000 1.274400 -1.433900 
-0.575740 0.762980 -0.795930 
0.468690 0.176860 -0.777920 
0.641830 -0.900420 -0.707890 
0.047026 -1.245100 -1.086800 
0.966340 -0.543410 0.047371 
-0.033875 1.353200 -0.121900 
0.612980 -0.738650 -0.714270 
0.689500 1.027600 -0.232090 
0.386100 -0.864990 -0.438430 
-0.786970 0.267450 -0.872600 
-0.424070 1.211200 -0.576070 
-0.699970 0.849310 -0.167550 
0.165270 -1.210100 -1.318600 
-0.364190 1.224600 -0.153610 
0.693710 0.053232 -0.868660 
0.678090 -0.174660 -1.480200 
0.085835 -1.473800 -0.238520 
0.389370 1.133400 -1.644400 
0.190750 1.119100 -0.921680 
-0.141700 -1.586500 -0.124430 
-0.404910 -0.698840 -0.434260 
0.715180 -0.099311 -0.887010 
-0.899020 0.356200 -1.167200 
-0.214700 -0.753830 -0.598990 
-0.094888 -1.103000 -1.523500 
-0.166880 -1.261000 -0.396770 
0.505310 0.851920 -1.704700 
-0.558490 1.123500 -0.869080 
-0.601500 1.009500 -0.341230 
0.922050 0.711700 -0.284080 
0.283790 0.792260 -0.971010 
0.312160 1.204200 -1.236600 
-0.355930 -0.369700 -1.024800 
0.784520 -0.615860 0.005433 
0.837210 0.690990 -0.282100 
0.113240 -1.281000 -0.115050 
-0.044087 1.370700 -0.597150 
-0.212000 -1.100200 -0.586960 
0.149410 -1.074100 -0.218060 
-0.199780 1.379200 -0.824210 
0.573260 -0.581490 -0.914820 
-0.018835 -1.174700 -0.709350 
-0.651730 -0.004959 -0.668400 
-0.380480 -0.351080 -1.190600 
0.598620 -0.387920 -1.099200 
-0.836820 0.510640 -0.683740 
0.418810 0.528990 -0.590070 
-0.276230 -1.456400 -0.168100 
-0.391200 -0.351290 -1.435200 
-0.835770 0.330420 -0.178200 
0.101990 -1.140100 -0.557120 
0.726970 0.488680 -0.328600 
0.170120 -1.238000 -0.704340 
0.211360 -1.001400 -0.551810 
-0.004773 -1.267500 -1.462000 
-0.555270 1.055700 -0.733570 
0.213810 -1.057900 -0.121480 
0.621330 0.338690 -0.407720 
0.446670 1.071900 -0.882990 
0.670250 0.034412 -1.465900 
0.581450 0.186510 -0.508780 
0.438720 0.863890 -0.443910 
0.453050 0.151840 -0.995980 
-0.505790 -1.127400 -0.319090 
0.553350 -0.950520 0.036052 
-0.283810 -0.457070 -1.449700 
-0.480670 1.239100 -0.096499 
-0.586040 -1.072000 -0.327280 
0.762590 -0.010609 -0.545800 
0.358140 1.210500 -0.805880 
-0.362230 1.199000 -0.207910 
-0.065044 -1.048500 -1.336800 
0.065989 -1.552700 -0.100100 
0.330400 -0.887240 -0.426250 
-0.587170 -0.055867 -0.724790 
0.076574 -1.498800 -0.179390 
0.955160 0.535120 -0.298990 
0.526950 -0.571410 -0.610480 
-0.202530 1.338400 -0.065470 
-0.084176 -1.198100 -0.753620 
-0.582440 1.207800 -1.040400 
-0.514960 1.273800 -0.542870 
-0.363970 1.161400 -0.377660 
-0.571340 1.003000 -0.454330 
0.654180 -0.787450 -0.890000 
0.853220 -0.946640 0.108560 
0.173770 -1.107400 -0.110510 
-0.191880 1.191600 -0.494200 
0.565660 1.254300 -0.428140 
0.714100 0.428390 -0.339190 
0.577370 0.382990 -0.436220 
0.209740 -1.382800 -0.920280 
0.224700 -1.289200 -0.803000 
0.694070 0.308630 -0.355680 
0.758880 0.612470 -0.302880 
0.488300 1.088600 -0.464950 
-0.806330 0.945460 -0.044855 
-0.451370 1.393900 0.037087 
0.287980 0.864060 -1.158500 
-0.723810 0.114320 -0.561250 
0.452980 0.470300 -0.555440 
-0.846640 0.515460 -0.463060 
0.372330 0.658700 -0.625620 
0.405340 0.276350 -1.391300 
-0.863850 0.610810 -0.164380 
-0.119640 -0.965600 -0.651550 
0.290890 1.237000 -1.400900 
0.044399 1.271900 -1.085000 
-0.022816 -1.175400 -0.629670 
0.136300 -1.537800 -0.021961 
0.541510 0.751720 -0.369830 
0.362970 -0.940090 -0.107340 
0.343760 0.654000 -0.705050 
-0.979460 1.328600 0.016479 
0.508360 0.085069 -1.219500 
0.760800 0.112690 -0.374240 
1.187900 -0.026578 -0.086879 
0.344960 1.208100 -0.433180 
0.593730 -0.264930 -0.443610 
-0.483120 -1.175200 -0.306870 
-0.304580 1.166000 -0.427210 
-0.788470 0.537590 -0.847610 
-0.821640 0.356000 -0.887630 
0.247800 -0.999430 -0.165540 
-0.592270 1.280900 -1.083800 
1.049300 0.140070 -0.147900 
-1.085100 0.138460 0.010940 
-1.054800 0.972760 0.030571 
0.547360 -0.873550 -0.035723 
0.063097 1.575800 -0.005038 
-0.208740 1.382800 -0.024102 
0.790600 -0.246760 -0.123150 
-0.177330 -0.716570 -0.704830 
0.139700 1.135700 -0.871730 
1.014400 0.281950 -0.226910 
-0.935680 0.312120 -1.143900 
0.162050 -1.239700 -0.636040 
0.536150 -0.547540 -0.755710 
-0.183320 1.611500 0.062869 
-0.418730 1.320500 -0.767110 
-0.516720 -0.492470 -0.406910 
-0.704910 0.162470 -0.380230 
0.791130 0.394270 -0.308890 
-0.958860 -0.536470 -0.209140 
0.591420 1.119200 -0.278880 
-0.086246 -0.998600 -0.858980 
0.065164 -1.235100 -0.575840 
0.107460 -1.191000 -1.347600 
-0.737240 1.181100 -0.207950 
0.353280 0.419880 -1.355800 
-0.457060 -0.275310 -1.045400 
0.581690 -0.705260 -0.758800 
-0.195080 1.198700 -0.548890 
1.072900 0.236110 -0.202570 
1.130900 0.187180 -0.180500 
-0.205300 1.235100 -0.676150 
0.652520 -0.469930 -0.198440 
0.744320 -0.063601 -1.053800 
-1.206400 0.262280 0.007065 
-0.730540 0.622070 -0.390280 
-0.267610 1.723300 0.072895 
1.149800 -0.084918 -0.060237 
0.691130 -0.125130 -0.446320 
-0.602820 1.489500 0.072135 
0.693960 1.345100 -0.185950 
-0.673940 1.195600 -0.551800 
0.782600 -0.067011 -0.317350 
0.996890 -0.020731 -0.091410 
1.018600 0.329740 -0.250790 
-0.613000 -0.033194 -0.664040 
-0.852120 0.391960 -1.264300 
0.003417 1.398000 -0.658980 
0.386970 1.034300 -0.798990 
0.084341 1.404400 -0.267460 
1.077300 0.282850 -0.229810 
1.051200 -0.656880 0.063526 
0.484430 0.990330 -0.375600 
0.416930 0.458290 -0.625850 
-0.676160 0.599730 -0.831150 
-0.440340 1.342300 0.004224 
0.208350 -1.264500 -1.249200 
-0.698590 0.037943 -0.314940 
-0.420970 1.168300 -0.390910 
0.395900 -0.870760 -0.488730 
0.561170 -0.259030 -0.759020 
-0.978610 0.235620 -0.030324 
0.615430 -0.732290 -0.158720 
-0.677710 0.883690 -1.364300 
-0.758930 -0.720560 -0.277040 
0.747260 -0.034727 -0.740150 
0.683480 -0.361200 -0.212480 
0.299430 0.940670 -1.153600 
-1.084800 0.349090 -0.010861 
0.560810 -1.307200 0.168400 
0.284300 1.154700 -1.080800 
0.039716 1.377800 -0.260480 
-0.664450 1.244300 -0.429860 
0.433620 1.183700 -1.449700 
0.219120 -1.251600 -1.321500 
0.745700 1.308000 -0.187280 
-0.667200 0.005823 -0.420340 
-0.045174 1.290700 -0.317200 
-0.586240 0.949510 -0.345430 
0.198370 -1.293000 -0.531430 
0.617030 -1.167000 0.136660 
0.244480 1.122200 -0.964690 
-0.378730 1.636300 0.087360 
0.342880 1.263600 -1.518800 
-1.028100 0.588950 -0.026785 
0.385950 1.040000 -1.008200 
-0.377390 -0.362780 -0.809050 
0.323920 -0.888980 -0.341510 
0.194530 -1.366900 -0.429620 
0.930550 0.650920 -0.292480 
0.339660 0.421570 -1.204800 
0.454680 0.330160 -0.623530 
0.614880 0.305700 -1.681200 
0.409040 0.905320 -1.571400 
-0.766000 1.106600 -0.079634 
0.309620 0.570040 -1.063700 
0.337030 0.423530 -1.105900 
-0.579650 0.846490 -0.943460 
0.017831 1.312900 -1.059100 
-0.917460 0.122530 -0.042501 
-0.641600 1.055400 -0.342100 
-0.500200 -0.205000 -0.880410 
-0.069573 1.683000 0.039360 
0.130080 -1.406100 -0.702470 
-0.171150 -1.149500 -1.275200 
-0.098481 -1.200300 -0.904510 
-0.646320 0.811540 -1.376100 
-0.710060 -0.030453 -0.984130 
0.618780 -0.222200 -1.234400 
-0.810660 1.188800 -0.035445 
0.174990 -1.473400 0.053658 
-0.700880 1.295300 -0.084885 
0.274720 -0.926110 -0.332070 
0.431670 0.570900 -1.654200 
1.124900 -0.521130 0.034782 
0.785950 0.502970 -0.310210 
0.908570 0.837460 -0.261940 
0.495490 0.483670 -0.492270 
0.237120 -1.344800 -0.876060 
-0.521550 -0.197030 -0.959530 
-0.451330 1.384000 -0.817960 
-0.703220 0.020149 -0.703730 
0.765530 0.226630 -0.305970 
-0.843770 0.245980 -0.951280 
0.309190 0.854930 -1.352500 
-0.621800 -0.155570 -0.382900 
-0.617190 -0.751780 -0.311100 
0.475450 -1.041900 0.062017 
0.560520 1.190000 -0.493030 
-0.883050 0.232000 -0.999700 
-0.088343 1.241300 -0.440260 
-0.500790 1.343000 0.015828 
-0.268150 -0.502290 -0.906000 
-0.066701 -1.285900 -1.385200 
-0.733890 0.356570 -0.609890 
0.476130 0.783040 -1.677900 
1.185700 -0.153330 -0.047430 
0.431250 0.353100 -1.549900 
0.429600 -0.897160 -0.600040 
0.420550 -0.959870 -0.692570 
0.145070 -1.255700 -0.422900 
1.141400 -0.444360 0.020235 
0.259320 1.183900 -1.241500 
-0.015882 1.742300 0.017115 
0.497730 -0.839860 -0.168610 
-0.211780 -0.968140 -0.479760 
-0.688240 0.056338 -0.423780 
0.158020 -1.394300 -0.923030 
1.066400 -0.422620 0.027236 
0.085604 -1.310000 -0.962620 
0.991970 -0.077034 -0.071584 
-0.224080 1.320700 -0.820520 
-0.140750 -1.039700 -0.914410 
0.528560 -1.383900 0.178500 
0.966660 -0.944110 0.094246 
-0.091067 -1.263900 -0.292970 
0.244760 -1.638900 0.055699 
-0.283070 -0.554790 -0.704490 
0.834280 0.946490 -0.237340 
-0.315770 -0.500750 -0.701660 
-0.087512 1.347100 -0.649130 
-0.141390 1.738400 0.049984 
-0.595680 0.812580 -1.196400 
0.304500 0.713250 -1.313100 
0.418830 1.020500 -1.592500 
0.160050 -1.036100 -0.533380 
0.750270 -0.139320 -0.226600 
-0.432150 -0.646660 -0.429090 
-0.798040 1.328700 0.014064 
-1.035500 0.897770 0.028185 
0.802000 -1.072100 0.118730 
0.317140 0.639490 -1.364400 
0.073016 -1.240500 -0.772750 
0.612580 0.456480 -0.392160 
0.381940 0.844780 -1.540900 
-0.376320 1.316100 -0.032961 
0.605730 1.345200 -0.225440 
-0.052361 -1.000200 -1.106300 
0.155530 -1.242800 -0.566200 
0.124180 1.371000 -0.378490 
-1.254000 0.335860 0.001576 
0.098391 1.217900 -0.722120 
-0.426110 -0.558330 -0.471510 
-0.716080 0.207650 -0.318910 
0.597260 -0.797730 -0.498070 
-0.113060 1.559900 0.041077 
-0.247850 1.226600 -0.207730 
0.248550 -1.232100 -0.974360 
0.413610 0.210680 -1.092700 
0.202830 1.149900 -0.543550 
-0.133930 -1.515700 -0.127670 
-0.562790 0.814120 -0.659990 
0.237250 -1.172100 -0.980740 
0.416390 0.278020 -1.441200 
-0.655920 1.244600 -0.544760 
0.641000 -0.749610 -0.946170 
-0.806810 0.820730 -0.075551 
0.309040 0.791830 -0.747280 
-0.691790 0.061157 -0.479560 
0.640800 -1.102400 0.121470 
-1.139400 -0.085890 -0.015097 
0.478220 0.290180 -1.586400 
0.175890 -1.330600 -0.284210 
-1.141800 0.272770 0.004957 
0.434410 0.238940 -0.779280 
0.551910 -0.442380 -0.511590 
0.337880 1.196900 -0.994940 
0.356810 0.435810 -0.827590 
0.620830 -0.494320 -1.071500 
-0.628400 1.015600 -0.267490 
-0.880420 0.566330 -0.208060 
0.646160 -0.231630 -1.375800 
-0.645030 1.068600 -1.146100 
0.596620 -0.678770 -0.327110 
-0.705720 -0.164830 -0.247770 
-0.572800 -0.111900 -0.916550 
-0.745220 0.801010 -0.137480 
-0.200920 -0.597330 -1.079800 
-0.456420 -0.317360 -0.635490 
0.553190 0.439670 -1.705300 
0.679420 -0.416500 -0.190300 
0.442200 1.502200 -0.146920 
0.752390 -0.423050 -0.098034 
0.566720 -0.678040 -0.836240 
-0.308050 -0.680900 -0.537810 
-0.153130 -0.664420 -0.995500 
-0.114150 -0.739310 -0.866380 
-0.421210 -1.331900 -0.250010 
-0.756700 0.282030 -0.816150 
-0.544320 0.938980 -0.586670 
-0.937930 0.363310 -0.097821 
0.611750 -1.364400 0.167270 
0.771080 -0.091289 -1.497900 
-0.362350 1.167500 -0.320920 
0.635510 -0.629510 -0.162320 
-0.575420 0.755720 -0.712280 
-0.324240 1.251600 -0.750740 
-0.646360 -0.697930 -0.299970 
0.757980 0.050010 -0.478240 
-0.745130 0.050914 -0.698210 
-0.075328 -0.878330 -0.791910 
0.551500 -0.622670 -0.832340 
-0.420160 1.210400 -0.161460 
0.500920 0.148230 -1.511200 
0.057195 -1.252000 -1.006800 
-0.444470 -0.968550 -0.352560 
-0.616930 0.691170 -0.502540 
-0.607310 0.988240 -1.050700 
0.608360 -0.315290 -0.379890 
0.302950 0.641860 -1.214100 
-0.760400 0.300360 -0.265010 
-0.119540 -1.244800 -0.378640 
-0.133210 1.208400 -0.423030 
-0.516250 1.210200 -0.324530 
-0.692650 -0.501450 -0.277910 
0.944950 -0.844800 0.095224 
-0.661050 1.327100 -0.030171 
-0.248690 -0.608770 -0.705650 
0.630240 -0.522190 -0.205060 
0.583970 -0.376320 -0.430660 
-0.100700 -1.045300 -1.165400 
0.554720 0.690980 -0.376360 
-0.786410 -0.152330 -0.157000 
0.601050 -0.742860 -0.473460 
0.569200 -0.678630 -0.650810 
-0.678360 0.022341 -0.590890 
0.652940 -0.293300 -1.374400 
0.176770 -1.037800 -0.596130 
-0.583810 1.430600 0.059770 
-0.078318 1.741800 0.034685 
-0.003441 1.368000 -1.062600 
-0.204640 1.732200 0.062765 
-0.847610 0.055985 -0.848770 
-0.573850 1.318500 -0.653690 
-0.661450 0.901810 -0.198370 
-0.022911 -0.925500 -1.226100 
0.656280 -0.231310 -1.445300 
0.258860 -1.303200 -1.408800 
0.268130 -1.122400 -0.997720 
-0.326940 1.283400 -0.814150 
0.160380 -1.363800 -0.177890 
-0.260670 -1.231700 -0.383180 
-0.642130 -1.062200 -0.327810 
0.930530 -1.003300 0.100840 
0.343260 0.724590 -0.664140 
-0.747580 1.140900 -0.148500 
0.637100 -0.649400 -1.017600 
0.414840 0.208920 -1.140200 
-1.122900 0.413640 -0.004544 
-0.157270 1.441800 0.003954 
0.684260 0.841790 -0.275040 
-0.561560 -0.142790 -0.545060 
0.604290 -0.730980 -0.858000 
-0.073170 -0.783420 -1.044500 
0.366560 0.347240 -1.299100 
-0.656720 -0.792000 -0.303270 
0.055645 1.374800 -0.637400 
0.049820 1.381600 -0.695720 
-0.475940 1.212600 -0.151090 
-0.524350 -0.580690 -0.374050 
-0.592830 -0.191020 -0.425390 
-0.667790 -0.183970 -1.222300 
-0.761080 -0.006045 -0.172490 
-0.115310 -1.007900 -0.742600 
0.391440 0.275390 -1.292000 
0.552210 -0.305230 -0.686710 
-0.831820 0.500390 -0.863280 
0.718870 -0.440150 -1.287500 
0.291620 0.717320 -1.116200 
-0.849730 0.452380 -0.833080 
-0.399870 -1.282500 -0.261440 
0.734210 0.014209 -0.825670 
-0.620700 0.891140 -0.273630 
0.077512 1.333700 -0.699430 
0.136340 1.406300 -0.270220 
0.593690 1.517100 -0.160850 
-0.520370 -0.241930 -0.557510 
0.309540 0.569200 -1.112600 
0.767110 -0.027107 -1.433500 
0.886950 -0.888560 0.102870 
-0.732390 0.254710 -0.291110 
0.528250 -0.586180 -0.676140 
0.730790 -0.362320 -0.147010 
-0.535990 -0.671760 -0.350260 
-0.202800 -1.144900 -0.934890 
0.285540 0.865520 -1.110400 
0.382430 0.277670 -1.145500 
0.733280 0.097293 -0.443910 
0.732830 -0.598170 -0.039856 
0.611890 -0.541910 -1.022600 
0.185710 1.139500 -0.613650 
0.510830 1.185700 -0.766330 
0.563340 0.058763 -1.035800 
0.894430 -0.031115 -0.151080 
0.136200 -1.314300 -0.164110 
0.195620 1.428000 -0.187150 
-0.804150 0.455980 -1.094100 
0.183950 1.205700 -0.447760 
0.606120 -0.420230 -0.328310 
-0.651190 -0.119670 -0.339500 
0.684250 -0.448240 -1.235100 
0.612360 1.434900 -0.172310 
0.857160 -0.249840 -0.072258 
-0.576910 0.835520 -0.866520 
0.231550 -1.475700 0.109220 
0.445880 1.076600 -1.484700 
-0.521360 -1.272900 -0.303330 
0.636390 -0.940750 0.066006 
-0.250940 1.183800 -0.538850 
0.690830 -0.529380 -0.113310 
0.158230 -1.421400 -0.192290 
0.781850 -0.748230 0.050941 
0.338310 0.426160 -1.009500 
0.252090 -1.406600 0.126290 
0.457340 1.131100 -1.423700 
0.421930 0.227680 -0.864610 
-0.324280 -1.328200 -0.238080 
0.462540 0.140950 -1.275300 
-0.082621 -1.251000 -1.176100 
-0.072000 1.310200 -0.544020 
0.192680 -1.299200 -0.461310 
-0.024160 -0.909570 -1.490700 
0.380350 0.567010 -1.564900 
-0.026731 -1.359400 -0.231800 
-0.151460 -0.982640 -0.582740 
-0.337640 -0.399770 -1.278000 
0.529050 0.812300 -0.364430 
-0.586680 1.343700 -0.876010 
0.769070 1.251000 -0.192370 
0.915000 0.773980 -0.273560 
0.114120 -1.135400 -0.626350 
0.057876 -1.239700 -1.568900 
0.333830 0.780080 -1.458100 
0.996530 0.185500 -0.178510 
-0.739350 1.259000 -0.106380 
0.553450 -0.331210 -0.805980 
-0.746630 0.163920 -0.638500 
-0.662260 1.023800 -0.196240 
0.316920 1.172000 -0.527020 
0.717410 1.221700 -0.198070 
0.318970 0.722310 -0.746960 
-0.853150 0.658570 -0.120560 
0.019335 -1.371200 -0.303620 
0.680780 -0.397410 -1.286800 
0.564840 -0.356140 -0.921030 
0.113070 1.681200 -0.014694 
0.343820 1.384300 -0.172610 
0.638610 -0.156660 -0.692470 
-0.206000 -1.016700 -0.491460 
-0.821600 -0.446530 -0.213630 
-0.750370 0.107460 -0.642870 
-0.692370 1.073900 -0.204590 
-0.761880 -0.334100 -0.221350 
0.197780 1.306300 -0.320490 
0.656980 0.410920 -0.371130 
0.325960 -1.079900 0.013778 
0.232420 -0.960010 -0.422510 
0.714350 -0.779690 0.024572 
0.461320 1.234900 -0.858840 
0.901900 0.901850 -0.250210 
0.447000 1.070700 -0.803940 
-0.796120 1.244700 -0.035647 
-0.382240 -0.343590 -0.891020 
0.069251 1.371500 -0.434560 
0.326550 1.001700 -0.923480 
0.852510 -1.112500 0.114890 
0.672040 1.141800 -0.219660 
-0.569180 1.138500 -0.969370 
-0.368870 -0.359150 -1.108500 
0.163400 -1.180400 -0.828570 
0.423120 0.206150 -1.284200 
-0.877180 0.843760 -0.025589 
0.641680 -0.308940 -0.304390 
-1.028700 0.154900 -0.001279 
0.451320 0.400270 -0.589030 
0.447780 1.073900 -0.963480 
-0.555080 -0.122020 -0.610560 
-0.390860 -1.369700 -0.229060 
0.326830 1.172500 -0.702200 
0.434900 0.840470 -1.628700 
0.319040 0.928270 -1.343400 
-0.619760 1.092700 -0.571120 
-1.119600 0.793880 0.025482 
-0.028302 -0.929460 -1.140300 
0.531470 0.158610 -1.600900 
0.316530 0.573630 -0.921810 
0.384320 0.973880 -1.467600 
-0.619560 1.108000 -1.077400 
0.486410 0.742770 -0.421310 
0.469700 -0.957400 -0.002547 
0.984680 -0.626550 0.064294 
-0.513310 1.220600 -0.381580 
0.762070 -0.085464 -1.413700 
0.789050 0.804560 -0.263000 
0.400970 1.245900 -0.601810 
-0.823700 0.410550 -0.693350 
0.655780 -0.170870 -1.293900 
-0.725640 1.088000 -0.139490 
0.753450 -0.103290 -0.289830 
-0.501010 1.599700 0.087198 
0.666080 -0.636750 -0.103360 
-0.244330 -1.369600 -0.200980 
0.582650 -0.324360 -0.457640 
0.173520 1.672600 -0.036970 
-0.726360 -0.776320 -0.290260 
0.747350 0.670120 -0.294880 
0.574930 0.096129 -1.626200 
-0.706110 -0.590850 -0.274580 
-0.079852 -0.764190 -1.518000 
0.201020 1.209900 -1.273400 
-0.709970 0.318870 -0.459810 
-0.418520 1.175300 -0.275490 
-0.589270 0.874870 -1.123200 
-0.801970 0.339700 -0.238280 
-0.796890 0.546480 -0.775900 
0.834070 -0.777120 0.078153 
0.160920 -1.415800 -0.431890 
0.947480 0.127870 -0.175100 
0.859020 0.575570 -0.296030 
-1.003100 -0.108620 -0.028185 
0.818260 0.625810 -0.292680 
-0.045998 1.509800 0.010851 
-0.606580 0.945230 -1.141600 
0.722850 -0.132180 -1.431700 
0.326150 0.638950 -1.415100 
0.192910 -1.124000 -0.864920 
-0.589340 0.817190 -0.403050 
0.652640 -0.348680 -1.302700 
0.547990 1.247200 -0.489220 
0.610260 -0.368340 -0.355570 
-0.621030 1.050000 -0.412430 
-0.563380 -0.238000 -1.221800 
0.306040 0.641040 -1.263800 
0.539220 -0.496850 -0.512040 
0.272930 1.165800 -1.161100 
-0.435270 -1.382500 -0.246860 
0.701150 -0.119010 -1.158600 
-0.631320 -0.217750 -1.305200 
-0.812960 0.559280 -0.513090 
0.101530 1.169300 -0.824340 
-0.839580 0.415650 -0.379170 
-0.993880 1.017500 0.026994 
0.665200 -0.293500 -1.438800 
-1.134600 1.003400 0.025318 
0.314670 0.648890 -0.833210 
-1.099600 0.601430 0.003735 
0.406290 0.303430 -0.781120 
0.972750 -0.779560 0.086566 
0.100380 -1.245100 -0.229640 
-0.807880 0.557340 -0.589640 
0.381780 0.794710 -0.548390 
-0.168380 1.287100 -0.707070 
-0.101680 -1.100400 -1.436100 
-0.660520 1.462200 0.064486 
0.549080 -0.365890 -0.693770 
0.045629 1.739800 -0.002398 
-0.372530 -1.236700 -0.283440 
0.591050 -0.687800 -0.445860 
0.602170 -0.574290 -0.244860 
0.416740 0.207580 -1.188000 
1.070800 -0.079227 -0.056616 
0.171370 -1.259700 -1.505300 
-0.773060 0.237930 -0.205240 
-0.231510 -0.521040 -1.543900 
-0.620520 0.644360 -0.910850 
0.769320 -0.047588 -0.454450 
0.635280 -0.866880 0.023217 
0.549900 1.362600 -0.234430 
0.362780 1.441400 -0.150180 
-0.128240 -0.841240 -0.668440 
0.312310 -1.285400 -1.273100 
0.639810 0.223490 -0.415350 
-0.137330 1.210500 -0.479630 
0.396040 -0.890620 -0.158610 
0.823630 0.247610 -0.270170 
-0.890180 0.328280 -1.038000 
0.324140 0.494510 -1.208900 
0.917650 -0.078822 -0.105320 
0.517830 -0.921930 -0.005749 
-0.590700 1.151100 -1.034000 
0.740040 0.034249 -0.592050 
0.732520 -0.096530 -0.472880 
0.147400 -1.439700 -0.299850 
0.331640 -1.072300 -0.931020 
-0.040325 1.299200 -0.259020 
-0.740860 1.350400 0.012848 
0.480080 1.131900 -1.163100 
-1.037300 0.770270 0.016899 
-1.082500 1.133500 0.021726 
0.554360 -0.391250 -0.808790 
0.554530 -0.569330 -0.853380 
0.580340 -0.639860 -0.918470 
-0.083300 1.305600 -0.156560 
0.497940 1.318300 -0.336830 
0.316650 1.160400 -0.773340 
0.654190 1.314700 -0.210930 
0.090254 -1.149900 -0.448690 
0.622650 -0.256520 -0.364470 
0.690590 0.056934 -0.788860 
-0.528110 1.455200 0.067093 
0.295900 0.715520 -1.214200 
-0.677920 1.096400 -0.374150 
0.972950 0.480720 -0.295130 
-0.830690 0.406810 -0.762020 
0.601220 1.275600 -0.310430 
-1.156800 -0.029907 -0.002433 
-0.141840 -1.233000 -0.573320 
0.583700 -0.253150 -1.024300 
0.419400 1.034600 -0.560010 
-1.261800 0.561130 -0.001617 
-0.720520 0.255620 -0.699670 
-0.076681 -0.767940 -1.344400 
0.489160 0.346530 -0.553550 
0.113140 1.167800 -0.752510 
0.514030 -1.162600 0.129360 
-0.584610 1.046700 -0.554340 
0.552280 0.163930 -0.579790 
0.052399 1.308300 -1.143900 
0.962000 -0.326720 -0.003833 
0.106380 -1.548100 -0.065096 
0.582270 0.571140 -0.387950 
0.481240 0.499850 -1.687500 
-0.155780 -0.783100 -0.667370 
-0.500400 -0.235680 -1.026000 
0.650870 -0.809240 -0.008919 
0.058569 -1.384600 -0.442410 
0.431670 1.350700 -0.227310 
0.078335 -1.307800 -0.769260 
-0.640280 1.090300 -0.505670 
-0.873330 0.378990 -1.023300 
0.546780 1.305000 -0.357100 
-0.842390 0.461380 -0.550130 
0.431890 -0.850920 -0.328390 
-0.915180 0.318910 -1.092100 
0.206830 1.307300 -1.414100 
0.669270 -0.135840 -0.527870 
-0.765300 0.233840 -0.813350 
0.598990 -0.863480 -0.590430 
-0.113150 1.423700 -0.791350 
-0.785750 1.061100 -0.044543 
0.037704 -1.202400 -1.246200 
0.539790 -0.608830 -0.538260 
0.189030 -1.399800 -0.706040 
0.441200 1.134900 -1.515300 
0.889840 0.469060 -0.294530 
0.343950 0.918160 -1.437800 
-0.488880 -0.940610 -0.345780 
0.546520 1.447400 -0.170180 
0.355590 1.227000 -1.309200 
0.687330 -0.585420 -0.092630 
0.376070 -0.863390 -0.330060 
-0.661150 1.143000 -0.549350 
0.310000 -0.936600 -0.556730 
-0.713310 0.025010 -0.263740 
-0.340970 -0.714800 -0.483840 
0.183920 1.283200 -0.376620 
0.620300 0.828390 -0.303120 
0.730870 0.978030 -0.235450 
-0.567190 1.374700 0.036229 
-0.791900 0.090773 -0.748090 
-1.150400 0.546310 0.006080 
-0.191970 -0.580590 -1.550900 
0.734350 0.026093 -0.669280 
-0.627440 1.053800 -1.083800 
-0.454590 -0.305490 -1.383100 
-0.610660 0.817450 -1.259800 
-0.546080 0.998700 -0.647480 
-0.568520 0.950800 -0.829820 
0.039057 -1.187000 -0.700550 
0.473530 1.235500 -0.786550 
0.109490 -1.089600 -0.440180 
-1.158100 0.940140 0.024735 
0.554160 0.234690 -1.654200 
-0.601550 1.224400 -1.091800 
-0.195980 -1.207800 -0.609280 
0.291150 0.862220 -1.206800 
0.753940 -0.021470 -0.623150 
0.301140 0.645510 -0.970500 
-0.985170 -0.238630 -0.081951 
0.819690 -0.308660 -0.078993 
-0.589580 0.707730 -0.915440 
0.279350 1.131500 -0.699230 
0.487460 1.131200 -0.999890 
0.668720 0.473030 -0.355800 
0.467890 -0.877950 -0.527550 
-0.061290 1.434400 -0.785500 
-0.552750 -0.529320 -0.364540 
0.405700 1.244900 -0.834300 
0.602060 -0.626250 -0.255250 
0.649130 -0.150170 -1.028500 
0.241770 1.126800 -0.620570 
0.190330 -1.081800 -0.761460 
0.608500 -0.175150 -0.582150 
-1.081000 -0.265780 -0.085318 
-0.704630 1.035000 -0.129450 
-0.619180 1.263600 -0.309240 
-0.512580 1.254100 -0.490720 
0.447650 -0.864810 -0.160230 
-0.254250 1.194000 -0.591520 
-0.468090 1.211000 -0.465730 
0.965520 -0.695420 0.075868 
0.568320 0.630590 -0.382900 
0.742560 0.000256 -1.023700 
0.226310 -1.236000 -0.920550 
0.348900 1.202900 -0.879660 
0.645620 -0.156270 -1.105200 
0.339690 -1.219600 -1.178900 
0.130320 1.387600 -0.323810 
0.162930 1.131700 -0.722240 
-0.305790 1.225900 -0.178880 
-0.177490 1.437900 -0.838940 
-0.140000 1.309700 -0.119360 
-0.747160 0.678600 -0.219570 
0.583130 1.263600 -0.368530 
-0.792570 0.147710 -0.748010 
-0.544670 -0.154560 -0.924420 
0.816450 -1.001000 0.113440 
0.560000 0.303010 -1.661100 
-0.450270 -0.898970 -0.363480 
-0.617400 1.296100 -0.670140 
0.357340 0.354030 -1.006200 
0.349060 1.614300 -0.106480 
0.349570 1.266500 -0.278770 
0.406460 1.587600 -0.125570 
0.323240 0.498370 -1.012600 
0.196760 -1.396300 -0.776550 
-0.060983 1.624200 0.038354 
-0.193790 1.671600 0.065782 
-0.095860 -1.108000 -1.610200 
0.623850 -0.881140 -0.654350 
-0.867700 0.415630 -0.276600 
0.484660 1.132300 -1.080500 
0.211400 1.334200 -0.267500 
0.150340 1.180100 -0.578970 
0.472090 0.718870 -1.685400 
-0.606060 1.275000 -0.825770 
-0.261290 1.223700 -0.690910 
-0.787760 0.046885 -0.142880 
0.562180 -0.901420 -0.613220 
0.566120 -0.649210 -0.504790 
-0.161070 -0.696540 -0.783170 
-0.131460 1.678500 0.053468 
0.332260 0.792100 -0.664040 
0.196370 -1.036200 -0.189030 
0.313340 0.934450 -0.749180 
-0.300690 -0.581940 -0.632190 
-1.103100 -0.200970 -0.056392 
-0.583560 1.267000 -0.129540 
-0.635860 1.183500 -1.145300 
-0.028801 1.435100 -0.873670 
0.220160 -1.049600 -0.709640 
-0.576840 1.251500 -0.185910 
0.642650 0.046084 -1.203400 
0.347160 0.990380 -1.331400 
0.874110 -0.445660 -0.003324 
0.493710 0.574570 -1.728000 
-0.577020 1.312800 -0.980930 
0.106190 -1.098400 -0.366940 
-0.580670 1.105600 -0.701810 
0.301140 0.857670 -1.303800 
-1.032900 -0.253120 -0.081742 
0.347440 -1.071000 -0.839860 
-0.822700 0.072929 -0.811100 
-0.749440 -0.628060 -0.264840 
-0.870470 0.464760 -0.336440 
-0.728800 -0.872010 -0.305780 
-0.080467 1.260100 -0.267160 
0.150190 1.131400 -0.796440 
0.510410 0.119590 -0.777840 
0.475360 1.345600 -0.258270 
-0.644960 0.637670 -0.592540 
0.338100 0.638690 -1.465800 
-0.165690 -1.220500 -1.360600 
0.259130 1.140500 -0.550110 
0.355030 1.671200 -0.107380 
-0.446690 1.650200 0.088068 
0.560560 0.070898 -0.864180 
-0.036561 1.314700 -0.202030 
-0.169460 -1.190900 -0.978440 
0.478400 -0.944980 -0.701480 
0.753690 0.009150 -1.630300 
0.597160 -0.590430 -0.972020 
0.702260 -0.113320 -1.081200 
0.680560 -0.975180 0.092893 
0.390320 1.238200 -0.946760 
-0.622580 1.268300 -0.252730 
0.137630 -1.290900 -0.238570 
0.051177 1.339900 -0.815240 
-0.575230 -0.240160 -1.300200 
-0.054765 -1.047300 -1.424400 
0.047677 -1.322100 -0.435020 
-0.795440 0.220430 -0.864990 
0.497970 1.124300 -0.732360 
-0.230420 -1.080400 -0.480660 
0.898830 0.065209 -0.196160 
0.159850 1.194800 -1.185800 
0.571010 0.941290 -0.303490 
0.677010 0.121080 -0.475930 
0.504630 0.088341 -1.128500 
-0.394800 1.414400 0.038676 
-0.198560 -1.223300 -0.541570 
-0.032570 1.345600 -0.487010 
-0.083065 -1.638500 -0.114670 
-0.792230 0.373550 -0.756220 
-0.064405 1.298300 -0.489240 
-0.139690 -1.019000 -0.669500 
-0.151060 -1.207100 -0.789740 
-0.981870 0.030960 -0.009514 
0.462530 0.573440 -1.692100 
-0.631970 -0.099128 -0.392180 
-0.209550 -1.245000 -0.441340 
0.466710 0.140660 -1.322600 
-0.796850 0.185700 -0.813040 
0.198780 -1.136900 -0.042204 
-0.478630 -0.360090 -0.534530 
-0.609630 -1.117400 -0.327940 
-0.704060 -0.034827 -0.262770 
0.032191 1.368500 -0.317080 
0.167540 1.724300 -0.044996 
0.623060 -0.815850 -0.595200 
-0.079834 1.326600 -0.597310 
-0.274700 1.419600 0.017744 
-0.858720 0.388600 -0.961260 
0.600000 -0.782020 -0.113890 
0.310350 0.568460 -1.162100 
0.713120 -0.129390 -1.352800 
-0.000746 1.628100 0.023395 
0.230130 -1.008800 -0.608410 
-0.767390 0.330810 -0.809590 
-0.373690 1.248800 -0.702220 
0.465610 0.608300 -0.488800 
0.054537 -1.242900 -0.497960 
-0.581410 0.800090 -1.095600 
0.035676 1.341200 -0.871490 
-0.758230 0.062707 -0.185810 
-0.539750 -0.235310 -1.144800 
0.784290 1.059400 -0.216850 
0.403440 1.032900 -0.637840 
-1.031100 0.012919 0.001801 
0.318010 -1.294300 -1.336200 
0.256510 -1.306300 0.109060 
0.687210 -0.192700 -0.274040 
-0.649330 1.201000 -0.671030 
0.163990 -1.193800 -0.033455 
-0.856540 0.463590 -0.407320 
0.121940 -1.137400 -0.178560 
-0.882270 0.180510 -0.981460 
1.064200 0.189230 -0.173900 
0.068075 -1.370600 -0.545400 
0.487840 -0.839900 -0.335060 
-0.580770 1.373500 -0.969810 
-0.693760 -0.056720 -1.031500 
-0.618010 0.660030 -1.367800 
0.448180 0.496850 -1.650900 
-0.071455 1.448300 -0.830630 
0.732850 -0.082475 -0.690370 
0.232810 1.605300 -0.063681 
0.778770 -0.035915 -1.521600 
-0.680650 0.520200 -1.125400 
0.559740 -0.455520 -0.842590 
-0.646280 1.304200 -0.083499 
0.579190 -0.577050 -0.309940 
0.454950 -0.867920 -0.481960 
-0.353790 1.515700 0.071847 
0.775470 0.001906 -0.469390 
0.289680 1.610800 -0.085113 
0.277580 -0.934140 -0.270670 
0.453890 0.146470 -1.088000 
0.293400 -1.048100 -0.042095 
-0.398750 -1.061800 -0.336900 
0.319150 0.566440 -1.312600 
0.145540 -1.184500 -0.768270 
0.217190 -1.350500 -0.670540 
-0.299760 -1.287700 -0.276650 
0.338340 1.556700 -0.111050 
0.314220 1.306500 -0.224240 
0.692420 0.065232 -0.670560 
0.302640 -1.464200 0.151730 
0.404190 0.594850 -0.589520 
0.713220 0.084218 -0.517270 
0.913510 -0.745900 0.083347 
0.549220 -0.813490 -0.154150 
0.160490 -1.596700 0.003652 
0.299690 0.643310 -1.115400 
-0.680400 1.360800 0.015093 
-0.725300 0.469740 -1.322900 
-0.567750 1.181800 -0.923270 
0.392880 0.926740 -0.509670 
-0.852540 0.439330 -0.968860 
0.206410 -1.350500 0.086018 
0.565510 -0.660060 -0.564500 
0.602000 -0.844320 -0.021593 
-0.199590 -1.135000 -1.059300 
0.730200 -0.860030 0.069339 
0.419230 1.250500 -0.762750 
0.637860 -0.826250 -0.641010 
0.177450 -1.403000 -0.601690 
0.229950 1.264500 -0.300230 
0.409650 0.350500 -1.500700 
-0.477420 -0.242480 -0.945170 
-0.760600 0.590200 -0.557550 
0.687420 -0.831890 0.034677 
0.234420 1.132100 -1.043000 
0.306330 0.935590 -1.248300 
1.020800 0.379060 -0.270770 
-0.173660 1.552300 0.051643 
-0.642310 1.146200 -0.611090 
0.735250 -1.100000 0.123920 
-0.633550 0.960040 -0.230970 
-0.524610 1.212200 -0.207470 
0.702720 0.045939 -1.030300 
-1.020100 0.704260 0.001875 
-0.698300 0.219550 -0.438960 
-0.624480 1.240700 -1.140000 
0.531360 -0.510090 -0.583150 
-0.637370 0.584890 -1.204100 
-0.321510 1.231300 -0.706270 
0.802010 1.132400 -0.207310 
-0.648890 0.585070 -1.007600 
-0.529800 1.226500 -0.149660 
0.365660 0.913560 -1.482500 
-0.617080 1.262600 -0.365650 
-0.872150 0.263710 -0.102650 
0.317090 -1.007400 -0.684360 
0.627350 -0.164310 -0.499150 
1.170300 0.086219 -0.131100 
0.436860 -0.855760 -0.216540 
0.063416 1.480100 -0.061082 
-0.307280 1.169100 -0.481690 
0.251670 1.197000 -0.380950 
0.006333 1.352800 -0.199640 
-0.410180 -0.858790 -0.388290 
0.625420 -0.680680 -0.175580 
-0.572920 -0.153540 -1.001600 
-0.136450 -1.163300 -1.489200 
-0.565000 -0.197750 -1.076900 
0.467350 1.129200 -1.334300 
-0.573400 -0.315240 -0.410370 
0.529250 -0.524650 -0.653300 
0.636240 0.054835 -1.033700 
-0.058401 -1.293700 -1.519900 
0.106590 1.733800 -0.023309 
-0.520260 -0.278700 -1.406100 
-0.578840 0.894820 -0.850530 
-0.614580 1.155000 -0.703880 
0.561670 -0.530530 -0.372290 
0.210950 -1.353000 -0.601680 
0.181730 -1.003700 -0.360360 
-0.370090 1.274900 -0.077904 
-0.104910 -0.822610 -0.745060 
0.172430 -1.400700 -0.259250 
0.124510 1.288300 -0.574350 
-0.310150 -0.430320 -0.987460 
-0.017666 -1.241100 -0.349740 
0.615900 -0.470060 -0.264940 
-0.710050 0.095166 -0.310700 
0.484500 1.276300 -0.533980 
0.401250 1.029200 -1.362200 
0.417260 1.024500 -1.452600 
-0.193740 1.266000 -0.161200 
0.730630 1.164300 -0.200810 
0.295310 -0.927780 -0.505070 
-0.695720 1.104800 -0.308540 
0.436430 1.299500 -0.333930 
0.626020 -0.769240 -0.627850 
-0.587580 0.715760 -0.989610 
0.549880 1.578600 -0.152920 
-0.798450 0.382740 -0.376500 
-0.478220 -0.269650 -1.126700 
0.672370 -0.175270 -1.405200 
0.343960 -1.260900 -1.227500 
-0.799500 1.443600 0.046771 
0.516290 0.722960 -1.711300 
-0.867650 0.076188 -0.069297 
0.533160 0.084197 -1.450000 
0.573880 -0.777390 -0.312260 
1.028300 -0.728330 0.074299 
-1.139500 0.865420 0.026727 
0.677180 -0.134510 -0.794490 
0.411760 0.422270 -1.557200 
0.539700 -0.810260 -0.210410 
-0.789940 0.425890 -1.268600 
-0.727300 0.213670 -0.649400 
-0.404870 -0.927290 -0.374000 
0.623230 1.291700 -0.255690 
0.713170 1.447400 -0.181950 
0.427560 1.228100 -1.171500 
0.340940 0.860310 -0.624180 
-0.703690 -0.099883 -0.251480 
0.357810 -1.521200 0.161460 
-0.284810 -1.077100 -0.393160 
-0.955000 -0.370960 -0.148580 
-0.575420 -0.394580 -0.381700 
0.423790 -1.271300 0.157600 
0.310700 0.571050 -1.015600 
-0.231330 -0.567170 -0.866050 
0.798060 0.743800 -0.274030 
-0.851840 0.447270 -0.901910 
-0.589710 -0.278380 -1.457600 
-0.765530 0.511210 -0.984250 
0.502850 1.382200 -0.214930 
0.664910 1.495000 -0.173710 
-0.695390 1.200300 -0.432310 
-0.676780 0.713900 -0.291860 
-0.855220 1.221600 0.005104 
0.043473 -1.199100 -1.328700 
-0.274060 -1.013600 -0.407540 
-0.160580 1.262000 -0.661700 
0.088508 1.180400 -0.933750 
-0.718270 0.016738 -0.759120 
-0.820620 0.415210 -0.518770 
-0.593420 0.973800 -0.980710 
-0.324370 -0.413610 -1.113600 
0.166720 1.162300 -1.112600 
0.147990 -1.037800 -0.467140 
0.641050 -0.545950 -1.077300 
