-0.220250 -1.296800 -1.202800 
-0.862670 0.031367 -0.741260 
0.890070 -0.013429 -0.631470 
-0.572230 -0.683450 -0.391710 
-0.558330 -0.846360 -0.358480 
0.199040 1.330600 -0.616780 
0.290780 -1.615700 0.098121 
-0.354610 -1.021200 -0.426670 
0.755180 -0.358310 -0.797380 
0.137110 -1.474400 -0.862700 
0.802250 -0.666820 -1.065000 
0.905210 0.525100 -0.299370 
0.922050 0.711700 -0.284080 
0.868530 -0.071151 -1.298800 
-0.055553 -1.328500 -0.336960 
0.930530 -1.003300 0.100840 
0.247250 -1.131000 -0.382360 
0.232390 -1.244600 -0.050801 
0.538630 1.006400 -1.461900 
0.444900 -1.009000 -0.207270 
0.602470 0.764440 -0.427440 
0.484310 1.324300 -0.539910 
-0.109230 -1.316000 -1.035300 
0.439710 -1.508500 0.176300 
0.862150 -0.393880 -0.110060 
0.673290 -0.775800 -0.387230 
-0.003687 -1.463100 -0.216210 
-0.753860 0.846750 -1.064700 
1.170300 0.086219 -0.131100 
0.501300 1.011400 -0.622370 
0.844570 -0.135520 -0.786630 
0.609700 -0.855980 -0.324510 
-0.291600 -0.796370 -1.549100 
0.739330 0.099940 -1.476700 
0.501290 0.751050 -1.450000 
-0.358850 1.442700 -0.818160 
-0.815580 -0.777170 -0.283980 
-0.751890 1.234200 -1.198400 
0.132060 -1.326500 -1.285500 
0.744260 -0.605260 -0.979450 
-0.053561 1.456400 -0.636490 
-0.858520 0.718140 -0.254970 
-0.714360 1.150700 -0.729380 
0.522690 0.623000 -1.050700 
-0.776080 0.640570 -1.367300 
0.355030 1.671200 -0.107380 
0.845830 -0.517310 -0.072992 
-0.111540 -1.455600 -0.167380 
0.642020 0.205940 -1.455400 
0.394620 -1.040500 -0.308860 
-0.350690 1.490800 0.034358 
-0.454680 1.390400 -0.758310 
-0.789690 0.777140 -0.895710 
0.526460 -0.999050 -0.062580 
0.244690 -1.243500 -0.913110 
0.560730 1.134000 -1.142500 
-0.352420 -0.768610 -1.080100 
0.407440 -1.144000 0.017252 
-0.264920 -1.012900 -0.521900 
0.201480 1.281800 -0.937460 
1.043800 0.025282 -0.130390 
0.812310 -0.339010 -0.230230 
0.545990 1.123600 -0.480100 
-0.536970 1.288800 -0.231760 
0.469070 1.436700 -0.191050 
-0.305170 -0.839630 -0.896200 
-0.979460 1.328600 0.016479 
0.034942 -1.660700 -0.082431 
-0.337070 -0.797760 -0.787260 
0.839110 1.223200 -0.207930 
-0.488050 -0.932880 -0.382520 
0.579490 0.337610 -1.429500 
0.995150 0.428880 -0.285520 
0.633960 0.517100 -0.472950 
0.514660 1.080600 -0.806100 
-1.121300 0.926980 0.027593 
-0.371480 -0.762740 -0.682170 
0.640040 0.228330 -0.878950 
0.031298 -1.398500 -0.371390 
0.514790 0.756270 -0.741310 
0.078454 1.470000 -1.137400 
-0.333100 1.350900 -0.236290 
0.548560 1.124000 -1.440700 
-1.122400 -0.140900 -0.032805 
-0.618440 1.387100 -0.989230 
0.709290 -0.767340 -0.674450 
0.558040 1.139000 -1.024800 
0.502070 0.882890 -1.392000 
-1.052400 1.199500 0.018949 
0.504200 0.890130 -0.929850 
-0.793550 0.645360 -1.245300 
-0.217630 -0.913280 -1.421100 
0.899550 -0.027797 -0.776710 
0.473390 -0.953830 -0.366160 
-0.975090 0.530990 -0.641530 
-0.850160 0.666860 -0.888560 
0.263380 -1.130300 -0.510550 
0.546040 0.487230 -1.046000 
-0.804210 0.648360 -1.119000 
-1.118700 0.130300 0.007293 
0.521240 0.682470 -1.548300 
-0.688040 -0.208650 -0.520880 
-0.213080 -0.909100 -1.553800 
0.837250 -0.220640 -0.237890 
-0.708470 -0.248030 -0.408800 
0.751080 -0.872500 0.028189 
0.686220 -0.994180 -0.768650 
0.754090 -0.451470 -1.060400 
-0.557070 1.363900 -0.628240 
1.130900 0.187180 -0.180500 
-0.870020 -0.154330 -1.167000 
0.100810 -1.490100 -0.294510 
-0.984450 0.532780 -0.223160 
0.318510 1.253600 -0.945380 
0.295820 -1.107700 -0.253710 
-0.335300 1.331200 -0.371300 
0.867160 -0.874650 0.082003 
-0.948940 0.423130 -0.780490 
0.766300 -0.339860 -0.658700 
0.849870 0.052520 -1.165400 
0.301630 1.276400 -0.617280 
-0.375330 -1.178500 -0.332300 
0.827770 0.625290 -0.301540 
0.397270 -1.235200 0.095229 
0.493380 0.951420 -1.294400 
-0.083065 -1.638500 -0.114670 
-0.287830 1.335300 -0.503170 
-0.847240 0.149670 -0.630590 
0.203560 -1.185600 -0.272300 
0.079667 -1.438700 -0.502270 
1.018000 0.278350 -0.233170 
1.187900 -0.026578 -0.086879 
-0.518360 -0.604460 -0.511890 
-0.391480 -0.804860 -0.557570 
0.366230 1.333000 -1.484500 
-0.988650 0.307470 -0.094011 
-0.403290 -0.913500 -0.458050 
-0.174940 -1.038000 -1.615600 
-0.338610 -0.744270 -1.409500 
1.141400 -0.444360 0.020235 
-0.522720 -0.473430 -1.094300 
0.512100 0.883280 -0.626470 
-0.631400 -0.577320 -0.371750 
0.222130 1.586300 -0.085074 
-0.967670 0.531600 -0.363930 
-0.731730 1.459600 0.044356 
0.860780 0.046777 -0.533800 
0.704180 -0.735950 -0.787360 
-0.984090 0.423080 -0.195290 
0.207380 -1.509000 0.050507 
-0.753390 -0.159910 -0.329900 
-0.280460 1.404600 -0.103560 
-0.266940 -1.188700 -1.039700 
0.398510 -1.039100 -0.422440 
0.174290 -1.474600 -0.192930 
-0.218230 -0.930660 -1.051600 
-0.834950 0.711160 -0.375640 
-0.185850 -1.070800 -1.060900 
-0.746240 0.899360 -0.953450 
-0.714630 1.189200 -1.038000 
0.514610 0.619840 -1.175400 
-0.591490 1.296000 -0.372560 
-1.109600 1.067900 0.024118 
-0.376510 -0.727430 -0.891240 
-0.230740 -1.140000 -0.881990 
-0.708650 -0.191100 -0.915080 
-0.877730 0.534080 -1.123100 
0.012034 -1.300600 -1.292300 
-0.665760 1.342900 -0.062351 
0.778290 -0.225270 -1.479500 
-0.757870 1.102800 -1.114200 
-0.744920 -0.892050 -0.308490 
0.186560 1.306900 -1.076800 
0.317560 1.287100 -0.485760 
0.779540 -0.456410 -0.255060 
0.810060 -0.181820 -0.373030 
0.229090 1.289400 -0.742580 
-0.744630 1.098500 -0.395750 
0.771700 -0.232020 -1.304000 
0.855620 0.062846 -1.012200 
-0.912440 -0.064279 -0.097934 
0.651380 0.393540 -0.501170 
-0.598780 -0.425430 -0.540370 
0.434750 1.301500 -0.940650 
-1.055600 -0.333450 -0.118190 
0.701250 0.595900 -0.371330 
0.574150 0.341040 -1.291000 
-0.227620 -1.303400 -0.891960 
0.142560 -1.340200 -1.397400 
0.676750 -0.767640 -0.218400 
0.728290 0.120990 -0.872180 
-0.547040 -0.447100 -0.900650 
-0.818430 -0.228650 -1.280500 
-0.192650 -1.293300 -1.454700 
0.527790 0.819000 -1.539100 
-0.445300 -0.566930 -1.306700 
0.522830 -0.924580 -0.255660 
0.593550 -0.974030 -0.689400 
-0.626240 -0.478250 -0.428190 
-0.248670 -1.390600 -0.227850 
-0.271140 -0.933950 -0.619220 
0.228930 1.710800 -0.066750 
-0.215980 -1.335400 -0.374630 
0.220530 -1.404600 -0.925370 
-0.693580 1.288600 -0.287320 
-0.848400 -0.092588 -1.037800 
-0.820010 -0.284850 -0.221170 
-0.229490 -1.147400 -0.737210 
1.178400 -0.222020 -0.029220 
0.498290 0.821560 -1.174000 
0.012656 -1.351500 -0.874310 
-0.168000 -1.045000 -1.437000 
-0.621350 -0.336670 -0.648030 
0.229680 1.441300 -0.245050 
0.591470 1.128100 -0.348200 
-0.847910 0.173440 -0.243350 
-0.958540 0.524480 -0.843950 
0.766250 -1.213500 0.132600 
-0.882460 0.281020 -0.235950 
-0.471440 1.475600 0.044899 
-1.089000 0.783400 0.010611 
0.915650 -0.057964 -0.237230 
0.346290 1.270700 -0.745470 
0.233950 -1.384800 -0.455590 
0.108450 -1.383100 -1.141000 
0.351410 1.448700 -0.191690 
-0.494720 1.445300 -0.852370 
-0.766160 1.116300 -1.236300 
0.499780 0.684730 -1.309700 
0.547890 0.490260 -0.889620 
0.876600 -0.063645 -1.145700 
-0.650650 -0.317520 -0.529750 
0.636180 0.317540 -0.594380 
0.623760 0.687290 -1.714100 
-0.208410 -1.296800 -1.327800 
0.715880 -0.587410 -0.869970 
0.514460 0.758580 -1.011700 
-0.634200 -0.365690 -1.336700 
-0.802190 0.719010 -0.997010 
0.534010 1.120300 -1.576500 
-0.623730 -0.364630 -1.220500 
0.513550 -1.154000 0.090649 
-0.000201 1.539600 -0.035926 
-0.447570 -1.048800 -0.367910 
-0.350090 -0.757910 -1.198600 
-0.245650 -1.163300 -0.599590 
-0.735050 -0.357760 -0.320580 
-0.977660 0.876560 -0.015246 
0.422630 -1.376900 0.167470 
0.586360 0.355780 -0.922860 
-0.884830 1.443700 0.025875 
-0.293620 -1.161900 -0.412080 
-0.917800 0.201650 -0.133010 
-0.176910 -1.059900 -1.178100 
0.846310 0.043764 -1.326100 
0.882500 -0.013307 -1.437000 
0.224440 -1.359900 -0.820390 
0.764240 -0.221170 -1.160800 
-0.870450 0.290360 -0.784620 
0.789940 0.205750 -0.385730 
0.739250 0.168100 -0.512730 
0.641060 0.223370 -0.992050 
-0.525980 -0.460010 -1.210100 
-0.847670 0.302390 -0.389670 
-0.182950 1.353400 -0.579900 
-0.646030 1.309900 -0.173210 
0.201230 -1.255100 -0.745310 
0.827480 0.079542 -0.648600 
-0.414780 -0.657130 -0.998220 
-1.254000 0.335860 0.001576 
-0.944240 -0.287740 -0.130090 
-0.590010 1.447800 0.040260 
-0.873930 0.092009 -0.156720 
0.729010 0.103220 -1.346100 
-0.737520 -0.523740 -0.291540 
-0.783110 0.856500 -1.382100 
1.031500 -0.815200 0.079585 
-0.900380 -0.032940 -0.946660 
0.357360 1.264200 -1.051200 
0.310430 -1.467900 0.139580 
0.074683 1.447000 -0.275540 
0.704630 1.157700 -0.230660 
0.369580 -1.082800 -0.526860 
-0.228690 -1.483800 -0.163060 
0.145810 1.382100 -1.160200 
-0.765400 0.789510 -1.292000 
0.197060 -1.654700 0.012307 
0.738870 -0.732240 -0.092009 
0.544570 1.245400 -1.203400 
-0.760640 1.209400 -0.332480 
0.772140 -0.623520 -0.125620 
0.374660 -1.142600 -0.705610 
-0.727190 1.252800 -0.518310 
0.180270 -1.287400 -0.381530 
-0.850460 0.305440 -0.667180 
0.520380 1.007400 -0.511090 
-0.842090 0.310680 -0.545490 
-0.266200 -0.867970 -1.165300 
0.562850 0.753620 -1.636900 
-1.092700 0.661560 -0.015246 
0.751040 -0.565060 -0.241420 
0.463820 1.304200 -1.079700 
-0.763730 0.786250 -1.165700 
-0.717780 -0.113270 -0.748470 
0.512400 1.335500 -0.827680 
0.183860 -1.276800 -0.519920 
0.800290 -0.983850 0.095706 
-0.185530 -1.011700 -0.906540 
-0.831660 0.829470 -0.208200 
0.577850 -0.900550 -0.441800 
0.727670 0.107600 -1.219200 
-0.842170 1.213100 -0.042163 
-0.779070 0.000752 -0.621450 
0.299150 -1.172900 -0.796960 
0.599840 1.012400 -0.347690 
0.706070 -0.667930 -0.289640 
-0.756010 1.284000 -0.106850 
0.758320 -0.442900 -0.598630 
-0.227040 1.499100 -0.850070 
-0.521360 -1.272900 -0.303330 
0.079630 1.462900 -0.787370 
0.868640 -0.095293 -0.910190 
-0.697410 -0.351320 -1.428800 
-0.448280 -0.576710 -1.185500 
0.462760 1.278300 -1.557400 
-0.695060 1.242800 -0.662660 
0.579700 0.406140 -1.533700 
0.904260 -0.210910 -0.139060 
-0.991210 0.300840 -1.019100 
-0.600180 -0.363250 -0.768010 
0.565680 1.256000 -1.085800 
-0.544600 1.320200 -0.117300 
-0.646740 1.273900 -0.998670 
0.622600 -0.859760 -0.161220 
0.580350 -1.042200 0.036687 
0.580620 0.432970 -0.666980 
0.500120 1.019600 -1.201400 
-0.126580 1.357000 -0.464860 
0.878790 -0.079920 -0.344040 
-0.222830 -1.307200 -0.748330 
-0.528270 -0.453230 -1.329900 
0.854100 -0.451230 -1.289900 
0.656600 0.837140 -0.342430 
-0.102290 1.440700 -0.943430 
-0.113920 1.532200 -0.000284 
0.256740 1.504500 -0.154690 
0.895010 -0.739460 0.053777 
-0.909120 0.390350 -0.620870 
-0.624720 1.355100 -0.877490 
-0.797190 -0.666580 -0.266870 
-0.721480 1.118800 -0.923720 
-0.065172 1.489200 -0.762970 
0.767250 1.325200 -0.193770 
0.637750 0.826630 -1.704400 
0.147020 -1.436800 -1.040800 
0.948140 -0.334440 -0.048962 
-0.424270 -0.563410 -1.566100 
0.091486 -1.335100 -1.536900 
0.048436 -1.406100 -0.756150 
0.530160 1.335900 -0.690100 
-0.971380 0.531680 -0.503860 
0.173720 -1.313800 -0.199570 
-0.238700 -1.179600 -1.198100 
0.025562 -1.551300 -0.137930 
0.048792 -1.395100 -0.615440 
-1.148100 0.275140 0.000686 
0.531230 1.130900 -0.657450 
-0.039095 -1.322600 -0.633490 
0.889660 0.080738 -0.323970 
-0.635250 -0.945420 -0.324160 
0.534680 -1.070300 -0.771210 
0.731100 0.114490 -1.021100 
-0.015882 1.742300 0.017115 
0.629840 1.457500 -0.174490 
-0.229780 -1.178500 -1.625900 
-0.744970 1.060100 -0.824620 
-0.440700 -0.613810 -0.884730 
-0.800300 1.064500 -0.121830 
-0.922950 -0.599850 -0.232230 
0.842320 -0.645980 -0.015712 
0.887540 -0.054461 -1.033700 
-0.979650 0.638600 -0.118340 
-1.051700 0.420740 -0.079336 
-0.230000 1.355500 -0.325970 
-0.719610 -0.093811 -0.575690 
0.440100 1.312900 -0.421150 
-0.805260 0.764970 -0.531140 
0.412530 1.296200 -0.644040 
0.891780 -0.082630 -1.582200 
0.859630 -0.115190 -0.568010 
0.543950 0.542320 -1.544300 
0.742100 0.305390 -0.407220 
0.151710 1.373300 -0.737650 
0.451550 1.253100 -1.428700 
0.885240 0.013507 -0.414730 
-1.022600 0.393450 -1.226300 
0.872690 1.096800 -0.221680 
-0.029347 1.403300 -0.367010 
-0.744560 1.046200 -0.261960 
-0.578480 -1.171100 -0.324170 
-0.558200 1.553800 0.079529 
-0.852970 0.959380 -0.094178 
-0.255160 -0.905210 -0.755130 
0.749900 -0.316380 -0.930810 
-0.432110 -0.636890 -0.743910 
-0.227980 1.475500 -0.014394 
0.582270 0.887410 -0.418440 
-0.815600 1.353200 0.007322 
-1.238100 0.692880 0.007351 
-0.141390 1.738400 0.049984 
-0.814040 1.056700 -1.321700 
0.948070 0.161050 -0.232310 
-0.061574 1.635500 0.031290 
0.535140 1.069100 -1.319400 
0.096941 1.460000 -0.616250 
-0.748710 0.947070 -0.799300 
0.767860 -0.318110 -0.514570 
0.478940 -1.166600 -0.807450 
0.775660 -0.301110 -0.401960 
-0.206690 -1.174700 -1.319900 
-0.103880 -1.314200 -0.887110 
0.368150 1.360900 -0.275480 
-1.043800 0.538040 -0.093880 
0.558130 1.326600 -0.434870 
0.549880 1.578600 -0.152920 
0.743930 -0.519010 -0.367750 
-0.836940 -0.022899 -0.188610 
0.607250 0.475040 -1.630500 
-0.480310 -0.505810 -1.423900 
-0.904190 0.622300 -0.415880 
-0.340270 -1.518000 -0.184130 
-0.987200 0.187000 -1.005400 
0.546200 0.820520 -0.520330 
0.557820 0.414640 -1.166000 
-0.809570 -0.140550 -0.224530 
0.508830 1.047700 -1.678800 
-0.019845 -1.307700 -1.592300 
-0.906720 0.559580 -0.963860 
-0.442280 1.626200 0.091031 
-0.748630 0.996510 -0.675280 
-0.865970 0.525070 -1.334600 
0.716270 0.285560 -1.680700 
0.472870 1.259600 -1.302100 
0.689310 -0.650210 -0.617300 
0.499530 1.024400 -1.078800 
0.420500 -1.066900 -0.096490 
0.047875 -1.394800 -0.973880 
0.634630 0.208770 -1.320600 
0.234380 1.358900 -1.260700 
0.608350 1.232700 -0.517950 
0.781570 -0.233480 -0.746020 
-0.193350 -1.294800 -1.588100 
-0.399770 1.339800 -0.672150 
0.734510 -0.758080 -0.898570 
0.018325 1.479700 -0.890570 
-0.986150 0.754540 -0.047063 
-0.970930 -0.158500 -0.075280 
-0.995580 0.172030 -0.049080 
-0.805870 0.768620 -0.644260 
-1.201800 0.816860 0.017813 
-0.685940 -0.178150 -0.642400 
0.930550 -0.467220 -0.014794 
0.171480 -1.476500 -0.393970 
-0.122090 1.370500 -0.296220 
0.666700 -1.313800 0.155850 
0.788180 -0.354180 -1.268300 
-0.665930 -0.795550 -0.314270 
-0.394560 1.310200 -0.557740 
0.641420 0.238630 -0.732320 
0.894190 0.966810 -0.239290 
-0.502750 -0.516390 -0.803210 
0.578370 1.196200 -0.796400 
0.498760 0.890270 -1.047300 
0.541840 -1.284200 0.158810 
-1.053400 0.286440 -1.112000 
-0.184330 1.624500 0.061343 
-0.619080 -0.342020 -0.906480 
-0.908120 0.732590 -0.141250 
0.548270 -0.939280 -0.555550 
0.514560 0.757900 -0.855570 
-0.731870 0.985850 -0.383130 
-0.106820 -1.349500 -1.313500 
-0.743380 1.153500 -0.603880 
-0.744950 1.023400 -0.985180 
-0.706760 1.575800 0.059806 
0.342700 -1.211600 -1.058700 
0.448620 -0.998110 -0.531120 
0.183170 1.382100 -0.499980 
-0.562010 -0.435060 -0.681700 
0.553640 1.373100 -0.248330 
0.728020 -0.536690 -0.534010 
0.640830 0.549930 -1.712900 
-0.777820 0.929470 -1.282000 
-0.867610 0.666180 -0.532190 
0.844270 0.074447 -0.791800 
1.078400 -0.084555 -0.074393 
-0.181910 -0.981060 -1.297200 
0.262720 1.424500 -1.357400 
-0.260460 -1.291400 -0.512100 
-0.191900 -1.172200 -1.449800 
-0.984440 0.096043 -0.905690 
0.177190 -1.346500 -0.087567 
0.807920 0.744450 -0.283140 
-0.778330 0.934120 -0.236390 
-0.432870 1.302000 -0.276960 
0.239590 -1.369200 -1.308400 
-0.798410 0.820890 -0.327760 
-0.777810 0.828820 -0.749470 
-0.723020 -0.118600 -0.461260 
-0.970050 1.007300 0.004080 
-0.789340 1.172900 -0.156100 
-0.758320 -0.253120 -1.162300 
0.534840 0.479750 -1.256900 
-0.609190 1.374500 -0.735380 
-0.113740 1.455300 -0.083363 
0.133450 1.363500 -0.857460 
0.681870 -0.969700 0.044174 
-0.813780 0.152770 -0.496570 
0.242290 1.363300 -0.374890 
-0.660140 1.237700 -0.777070 
0.962230 -0.620400 0.045706 
-0.789170 -0.282460 -1.378700 
-0.014248 1.450900 -1.017000 
0.525210 0.624340 -0.931860 
0.503940 0.885890 -0.739350 
0.555130 0.946510 -1.563400 
-0.955780 0.050056 -0.060863 
-0.171070 1.397900 -0.171780 
-0.113750 -1.334000 -1.192600 
-0.435090 1.330100 -0.165380 
1.106100 -0.597570 0.048120 
-0.438750 -0.673180 -0.611350 
-0.835580 -0.447900 -0.226640 
0.211990 -1.208000 -0.160610 
0.638970 0.218140 -1.109800 
-0.392890 1.400900 -0.053456 
0.754130 -0.916690 -0.819700 
0.649580 1.251800 -0.274320 
-0.905480 0.624920 -0.776150 
0.241780 -1.162400 -0.638970 
0.908570 0.837460 -0.261940 
1.058000 -0.276900 -0.018031 
0.144340 1.485100 -0.170170 
0.705620 -0.623670 -0.408500 
-0.765880 0.874020 -0.441250 
0.701840 0.720110 -0.336980 
0.746620 -0.461490 -0.732220 
0.705580 0.148330 -1.620500 
0.807240 0.064351 -1.640300 
0.113810 1.444400 -0.388180 
0.529030 0.624890 -0.741500 
0.588790 0.361630 -0.773570 
-0.262990 -0.859670 -1.330500 
-0.648860 1.319600 -0.565120 
0.556520 0.563080 -0.632450 
-0.510270 -0.456830 -1.540800 
0.814060 -0.513320 -1.185100 
-1.261800 0.561130 -0.001617 
-0.972390 -0.457770 -0.181010 
-0.100190 -1.305700 -0.457880 
0.218450 -1.401700 -0.317330 
0.876430 0.245150 -0.289600 
0.852510 -1.112500 0.114890 
-0.693550 -0.648480 -0.308080 
-0.091629 -1.348100 -1.483500 
-0.473030 -0.826630 -0.429730 
0.539540 0.474200 -1.443200 
0.354880 1.290700 -1.364000 
0.411140 -1.194300 -0.920280 
-0.927910 1.126500 0.001207 
0.191370 -1.465800 -0.764390 
0.317940 -1.142200 -0.084340 
0.229150 -1.368600 -0.693230 
-1.176400 0.033116 0.006078 
-0.497660 -0.546670 -0.666510 
0.326360 1.278900 -1.203400 
0.228890 -1.430400 -0.561530 
0.773250 -0.206380 -1.017000 
-0.362490 -0.681440 -1.538900 
0.398570 1.567900 -0.129530 
-0.187620 -1.024300 -0.760420 
0.118410 1.364100 -0.982330 
-0.757510 -0.010371 -0.486030 
0.633880 0.275070 -1.560100 
-0.778830 -0.048423 -0.303720 
-0.913870 0.626950 -0.635650 
-0.685770 -0.283240 -1.059000 
0.507120 0.613610 -1.402300 
-0.795770 -0.034727 -0.807680 
-0.574760 -1.053500 -0.332820 
-1.003500 0.393420 -1.113700 
0.658320 -0.881540 -0.054867 
-0.548990 1.322900 -0.506550 
-0.921090 0.476630 -1.219900 
0.438940 -1.062800 -0.638950 
-0.599150 -0.378000 -1.032500 
-0.912560 0.624140 -0.301000 
0.741110 -0.433800 -0.931510 
0.840580 -0.121940 -1.473600 
-0.926780 0.379910 -0.297450 
-0.659240 -0.254830 -0.785940 
-0.256780 1.423600 -0.759350 
0.678210 -0.910980 -0.627920 
0.240100 -1.380000 -1.086200 
0.863080 0.404220 -0.306870 
0.710390 -0.567490 -0.752260 
0.765420 -0.417910 -0.423540 
-0.041605 1.422100 -0.505690 
0.721530 -1.081100 0.110760 
-0.949830 0.425820 -0.426470 
-0.812480 0.064892 -0.271600 
-0.308130 1.603400 0.079760 
0.056241 1.635700 -0.008218 
-0.765500 0.878010 -0.556890 
-0.197260 -1.600600 -0.139210 
0.019818 -1.319200 -1.409400 
0.683940 0.194570 -0.621590 
0.716390 0.420310 -1.685400 
0.749760 -0.335840 -1.069200 
0.606880 0.638340 -0.467030 
-0.228090 -1.299800 -1.042400 
0.729500 0.481750 -0.376580 
-0.743370 0.979140 -1.107600 
-0.968760 0.409040 -0.967160 
-0.507550 1.387400 -0.023143 
0.721970 0.131610 -0.726770 
-1.164100 0.484790 -0.012305 
-1.062800 0.004630 -0.007204 
-0.734970 1.046100 -0.515860 
0.758860 1.053400 -0.234160 
-0.103180 -1.321400 -0.745630 
-0.400110 -1.284900 -0.276400 
0.586140 1.261000 -0.934080 
0.554480 -1.414500 0.176200 
0.503300 1.024100 -0.923060 
-0.891140 0.847710 -0.099290 
0.674480 -0.843240 -0.516470 
-0.006976 1.465100 -0.120080 
-0.482170 -0.543740 -0.989070 
0.007614 -1.331900 -1.095500 
-0.914790 0.129880 -0.782320 
0.173660 -1.465400 -0.079834 
0.829070 -0.346200 -1.391800 
0.865240 0.034429 -1.540100 
0.300990 -1.344800 0.102650 
-0.440210 -1.407600 -0.246720 
0.628510 -1.171200 0.129350 
0.219850 -1.341100 0.021302 
0.309560 -1.297200 -1.140800 
0.138240 -1.476200 -0.652860 
0.119360 -1.582100 -0.064402 
0.011721 -1.338600 -0.515620 
-0.163800 -1.322500 -0.642630 
-0.133080 -1.364800 -0.249450 
-0.208020 -1.043600 -0.618400 
-0.376710 -0.687670 -1.318200 
-0.581460 -0.412630 -1.438400 
-0.466740 -0.725100 -0.495340 
-0.674740 -0.365150 -0.417220 
-0.793860 0.088837 -0.401040 
-0.924120 0.265510 -0.920050 
-0.829900 0.719890 -0.789290 
-0.822350 0.193750 -0.354450 
-0.438840 1.291400 -0.415530 
-0.267610 1.723300 0.072895 
-0.143940 1.405000 -0.694060 
0.790500 0.868330 -0.261230 
0.600980 1.242000 -0.650070 
0.621480 1.234400 -0.391650 
0.546070 1.182700 -1.340300 
0.788250 -0.214030 -0.601250 
0.552070 1.140300 -0.911450 
0.686200 0.969000 -0.284470 
0.576930 0.939220 -1.703800 
0.567700 0.614080 -1.638400 
-0.293290 1.346300 -0.626880 
0.552850 0.693540 -0.559740 
0.550820 0.492530 -0.776810 
0.584990 0.351990 -1.039300 
0.773130 -0.405230 -1.164900 
0.891760 0.020537 -0.895010 
0.792550 -0.192590 -0.874550 
0.977830 -0.091892 -0.126630 
0.792810 -0.197740 -0.488550 
-0.402450 -0.622170 -1.441000 
0.863790 -0.099547 -0.456100 
