-0.044087 1.370700 -0.597150 
0.163990 -1.193800 -0.033455 
0.852900 -0.311770 -0.055169 
-0.578840 0.894820 -0.850530 
0.162930 1.131700 -0.722240 
-0.426320 1.558600 0.085235 
-0.697220 -0.663450 -0.282330 
-0.283370 -0.472870 -1.117000 
-0.155550 -1.228100 -1.627100 
-0.095613 -0.814560 -0.785340 
0.571010 0.941290 -0.303490 
-0.142940 -1.161900 -1.445800 
0.458990 0.928700 -0.408060 
0.075206 -1.303200 -0.693440 
0.497020 0.360980 -1.637800 
-0.540570 -0.189270 -0.556030 
-0.457820 -1.059200 -0.331330 
0.992070 0.084350 -0.137390 
0.085076 -1.369700 -0.723910 
0.552410 -0.400160 -0.583330 
-0.841630 0.957710 -0.022851 
-0.085289 -0.884980 -0.751600 
-0.649970 0.639580 -0.550410 
0.584440 -0.209690 -0.788840 
0.232410 1.386700 -0.196380 
0.250600 -1.171300 -1.003600 
0.472400 0.426180 -1.645300 
-0.791900 0.090773 -0.748090 
-0.816600 0.560000 -0.474560 
0.464660 -0.878830 -0.105340 
0.079407 -1.310300 -0.807290 
-0.136200 -1.255200 -1.267000 
-0.082123 -1.258800 -1.217500 
-0.337640 -0.399770 -1.278000 
0.449010 1.314000 -0.307660 
1.028700 -0.412490 0.026143 
-0.578480 -1.171100 -0.324170 
0.326680 1.004100 -1.011500 
0.447200 1.072300 -1.347000 
-0.703690 -0.099883 -0.251480 
-1.109600 1.067900 0.024118 
-0.737710 0.138550 -0.241840 
-0.657300 -0.180460 -1.186700 
0.674440 0.715390 -0.305580 
-0.829170 1.493300 0.035838 
0.299610 0.644690 -1.018100 
-0.024903 -1.187100 -0.865400 
0.050453 -1.218100 -1.407900 
-0.440340 1.342300 0.004224 
-0.030962 -0.930650 -1.097600 
0.592390 -0.682270 -0.387020 
0.356310 0.352210 -1.053700 
-0.853000 -0.391780 -0.187050 
-0.468090 1.211000 -0.465730 
-0.377640 -0.373790 -0.769140 
-0.566690 1.288600 -0.549130 
-0.581000 1.320300 -1.005100 
-0.283810 -0.457070 -1.449700 
0.359500 1.287900 -0.255040 
0.595310 0.237670 -1.684600 
-0.575700 -0.242570 -0.435190 
0.214100 -1.351700 -0.636130 
-0.041854 -1.000700 -1.191300 
0.155530 -1.242800 -0.566200 
-0.093796 -1.199200 -0.866660 
1.031500 -0.815200 0.079585 
0.811000 0.346500 -0.296020 
-0.095860 -1.108000 -1.610200 
0.636400 -0.893760 -0.691210 
0.312940 0.572240 -0.968250 
0.358320 0.584470 -0.704840 
0.552620 -0.534720 -0.406620 
0.485860 1.309300 -0.364480 
0.866150 0.697950 -0.281610 
0.175440 1.646500 -0.036346 
-0.065044 -1.048500 -1.336800 
0.385760 1.244400 -1.598500 
0.810720 -1.163500 0.123040 
-0.862880 0.464150 -0.371800 
0.500920 0.148230 -1.511200 
-0.597810 -0.206590 -1.152500 
-0.039469 -0.837350 -1.350600 
0.291550 1.638500 -0.084269 
0.253660 1.118300 -0.887000 
-0.563380 -0.238000 -1.221800 
-0.579180 -0.075543 -0.623830 
0.606680 -0.199920 -1.048400 
-0.785750 1.061100 -0.044543 
-0.195080 1.198700 -0.548890 
0.357740 -0.974740 -0.667960 
0.577950 -0.528800 -0.932750 
-1.229800 0.486480 0.001563 
0.735250 -1.100000 0.123920 
-1.122400 -0.140900 -0.032805 
-0.379300 -1.106900 -0.327190 
-0.819000 0.414770 -0.553840 
0.139700 1.135700 -0.871730 
0.183550 -1.331100 -1.110200 
-0.873770 0.103610 -0.870860 
0.793390 0.015958 -0.394470 
0.695420 0.069068 -0.631640 
-0.374900 1.283100 -0.766130 
0.339690 -1.219600 -1.178900 
-0.634500 0.636530 -0.716850 
-0.573400 -0.315240 -0.410370 
-0.997110 0.415610 -0.066274 
0.003129 -1.278500 -1.590400 
-0.635860 1.183500 -1.145300 
0.392050 0.293600 -0.867010 
-0.679260 1.080600 -1.293900 
0.349880 0.432710 -0.871550 
-0.081786 -1.048600 -1.250900 
0.470470 1.081000 -0.536970 
-0.175530 -1.268600 -0.362970 
0.582290 -0.376780 -1.029900 
0.318010 -1.294300 -1.336200 
-0.199780 -1.088500 -0.887460 
-0.347990 1.486800 0.062507 
0.551650 -0.322420 -0.766570 
-0.488180 -0.267680 -1.166900 
-0.105210 -1.413900 -0.163100 
0.901900 0.901850 -0.250210 
0.474260 1.130400 -1.247600 
0.656620 -0.144920 -0.951300 
0.690830 -0.529380 -0.113310 
-0.419230 1.198800 -0.189340 
0.038131 1.393900 -0.782850 
-0.459630 -0.594730 -0.422860 
0.012917 1.372200 -0.517640 
0.321470 0.711240 -1.413300 
-0.669200 -0.071096 -0.323210 
0.295380 0.860080 -1.255300 
0.436270 -0.853940 -0.382060 
-0.202630 -1.089600 -0.619270 
0.041569 -1.331200 -0.400380 
-0.906360 0.520200 -0.208280 
-0.462960 -1.340400 -0.267760 
-0.629240 0.639150 -0.796650 
0.113760 -1.222400 -1.462800 
-0.072067 -0.996150 -0.939750 
-0.157210 -1.084200 -1.181900 
-0.676570 0.970150 -0.159910 
-0.033875 1.353200 -0.121900 
0.596260 0.328330 -0.432180 
-0.867650 0.076188 -0.069297 
0.206410 -1.350500 0.086018 
0.569570 -0.640070 -0.443620 
-0.979460 1.328600 0.016479 
0.774110 -0.097997 -0.253280 
-0.955720 0.263570 -1.108400 
-0.861730 0.777050 -0.051292 
0.159150 1.238500 -1.255300 
-0.927310 0.308970 -0.077801 
0.615770 -1.001000 0.085211 
0.244480 1.122200 -0.964690 
-0.617230 0.664380 -1.278000 
0.844000 1.084100 -0.218980 
-0.769310 1.537300 0.047739 
0.069007 -1.233600 -0.615310 
-0.437590 -0.284700 -0.962890 
0.389370 1.133400 -1.644400 
-0.585010 -0.263140 -1.420000 
0.784520 -0.615860 0.005433 
0.631050 -0.745530 -0.925470 
0.853220 -0.946640 0.108560 
0.550400 0.307610 -0.487680 
-0.852580 0.714210 -0.082493 
-1.081000 -0.265780 -0.085318 
-0.692370 1.073900 -0.204590 
-1.007500 -0.317410 -0.115220 
0.221440 1.164800 -0.476030 
-0.746960 0.490140 -1.081200 
-0.732010 0.472420 -1.174000 
-0.332520 1.404800 0.021966 
0.242210 1.231200 -1.359700 
0.231460 1.684700 -0.062888 
-0.579960 1.258400 -0.157550 
-0.623600 0.642640 -0.873450 
-0.532550 -0.166150 -0.622910 
-0.764530 -0.089211 -1.152600 
-1.081200 -0.004707 0.005431 
0.797020 0.130300 -0.310420 
0.950160 0.276020 -0.231100 
-0.445680 -0.323620 -1.502600 
0.288350 1.170200 -0.450540 
0.326830 1.172500 -0.702200 
-0.555670 0.943560 -0.750110 
-0.640290 -0.381150 -0.320440 
-0.386890 -0.680380 -0.456620 
0.508920 -1.253600 0.159450 
0.020153 1.328500 -1.087800 
-0.522300 1.208400 -0.236800 
-0.109540 -0.900640 -0.674500 
-0.618890 0.889890 -1.253200 
0.487210 -0.972300 0.019460 
0.436910 0.735590 -0.481630 
-0.054765 -1.047300 -1.424400 
0.542910 -1.100900 0.109170 
0.156290 1.322300 -0.425940 
0.039057 -1.187000 -0.700550 
-0.921570 0.219810 -1.045300 
0.465610 0.608300 -0.488800 
-0.602820 1.489500 0.072135 
0.197940 -1.362800 -0.463960 
-1.006200 0.641830 -0.019979 
-0.604310 1.038400 -1.019000 
0.568390 1.193500 -0.460820 
0.551500 -0.622670 -0.832340 
-0.378480 -1.040900 -0.347590 
0.383940 0.286190 -0.956710 
-0.687230 -0.737280 -0.291600 
-1.157700 0.413440 0.000769 
0.752330 -1.032100 0.115570 
-0.584350 -0.101520 -0.527530 
-0.607960 -0.825970 -0.316490 
0.714880 -0.385860 -1.344300 
0.639070 -0.159540 -0.458000 
-0.000647 1.410900 -0.715620 
0.203670 -1.390600 -0.847810 
0.511010 0.287640 -0.551210 
-0.742300 -0.061265 -0.195980 
-0.091067 -1.263900 -0.292970 
-0.613000 -0.033194 -0.664040 
-0.216180 1.432000 0.011496 
0.690710 0.061970 -0.709760 
0.309190 0.854930 -1.352500 
-0.761880 -0.334100 -0.221350 
-0.917460 0.122530 -0.042501 
0.348900 1.202900 -0.879660 
0.384880 1.039000 -0.965550 
0.529340 -0.931830 -0.679460 
-0.740210 0.575200 -0.787820 
-0.440210 -1.407600 -0.246720 
0.358140 1.210500 -0.805880 
-0.071136 -1.471400 -0.145920 
-0.638070 -0.124150 -1.065300 
0.646260 -0.744530 -0.073324 
0.605730 1.345200 -0.225440 
-1.026700 -0.115930 -0.026221 
0.943610 -0.463190 0.025782 
-0.551780 0.873610 -0.603470 
-0.445020 -0.300680 -1.262300 
0.728840 0.605650 -0.311210 
0.389160 -0.883370 -0.187020 
0.146310 1.439300 -0.191980 
-0.260670 -1.231700 -0.383180 
0.708820 -0.104830 -0.964940 
-0.206810 -0.587850 -1.205400 
0.346600 1.196300 -0.600840 
-0.353460 -0.645040 -0.507510 
-0.025575 -0.983750 -1.502900 
0.732760 0.019620 -0.747210 
0.583130 1.263600 -0.368530 
-0.858000 -0.550980 -0.227480 
-0.673520 -0.005372 -0.365290 
-0.772840 0.934420 -0.070204 
-0.192750 -0.623610 -0.866730 
0.381190 1.499900 -0.135650 
0.397560 0.641680 -1.612400 
-0.731120 1.173900 -0.238670 
-0.231590 -1.123400 -0.525290 
-0.592270 1.280900 -1.083800 
-1.098100 0.208200 0.006507 
-0.500200 -0.205000 -0.880410 
-0.066836 -0.872450 -0.833240 
0.601050 -0.742860 -0.473460 
-0.593930 0.696610 -0.798360 
0.618200 1.069300 -0.252400 
0.635510 -0.629510 -0.162320 
1.016000 -0.484450 0.039746 
-0.706170 0.114450 -0.477660 
-0.272620 -0.462540 -1.536700 
0.694860 1.429800 -0.177810 
-0.231510 -0.521040 -1.543900 
0.360250 1.227800 -1.267600 
0.109560 1.280400 -0.635970 
0.065118 1.336200 -0.757920 
-0.993890 -0.470280 -0.182210 
-0.372320 1.605700 0.086619 
-0.303350 1.202000 -0.232700 
-0.541770 -1.005300 -0.331030 
-0.236420 -0.585990 -0.783660 
0.419230 1.250500 -0.762750 
-0.750550 -0.127020 -1.231000 
-0.512580 1.254100 -0.490720 
0.474870 0.676190 -0.454720 
-0.658090 1.243800 -0.516060 
0.519900 0.228370 -1.616100 
0.093261 -1.146100 -0.485360 
-0.722450 -0.176670 -0.228170 
0.449260 -0.863580 -0.458030 
0.690590 0.056934 -0.788860 
0.393720 0.375500 -0.741410 
-0.096600 -1.219800 -0.487670 
-1.152000 0.343740 0.001583 
0.431270 0.280790 -1.490900 
0.211400 1.334200 -0.267500 
0.953780 -0.394620 0.011858 
0.966660 -0.944110 0.094246 
-0.842790 0.562560 -0.320390 
-0.161880 -0.641410 -1.421600 
0.213370 -1.287600 -1.463600 
0.573360 -0.477020 -0.369330 
-0.604260 1.324100 -0.801750 
0.035676 1.341200 -0.871490 
-0.268150 -0.502290 -0.906000 
-0.154540 -0.641570 -1.556700 
-0.590970 0.703860 -0.877240 
-0.127040 -1.012900 -0.705520 
0.487840 -0.839900 -0.335060 
0.472090 0.718870 -1.685400 
0.472570 0.215980 -1.526400 
-0.558490 1.123500 -0.869080 
-0.602270 -0.112990 -0.991250 
0.294820 0.786410 -1.260500 
1.000400 -0.881460 0.087330 
0.638430 -0.230380 -1.341000 
-0.665480 0.594200 -0.903750 
-1.261800 0.561130 -0.001617 
-0.521550 -0.197030 -0.959530 
-0.651370 1.247500 -0.602080 
-0.555270 1.055700 -0.733570 
0.398150 -1.067500 -0.824200 
-0.455260 -0.311120 -1.423400 
0.203800 -1.289300 -0.600820 
0.760800 0.112690 -0.374240 
0.362830 1.215400 -0.536910 
-0.701090 -0.432620 -0.272270 
-0.735640 1.131800 -0.179690 
-0.577170 0.751170 -0.626380 
0.193720 -1.504000 0.069344 
0.701300 1.152300 -0.208020 
-0.935990 1.060300 0.020656 
0.583960 -0.689460 -0.889510 
0.151420 -1.276700 -0.000145 
0.249550 -1.193300 0.049629 
0.696350 -0.910620 0.075564 
0.058766 1.328800 -1.170300 
0.101990 -1.140100 -0.557120 
-0.049400 1.537500 0.021156 
0.639810 0.223490 -0.415350 
-0.710030 -0.949260 -0.317650 
0.288630 0.792260 -0.879140 
0.021303 -1.281500 -0.351720 
0.548240 0.877170 -0.334550 
-0.504400 -0.264940 -1.246300 
-0.555360 0.874010 -0.519070 
-0.517360 -0.271110 -1.366100 
-0.309430 1.255800 -0.127310 
-0.478580 1.508700 0.078467 
0.915000 0.773980 -0.273560 
-0.643110 -0.009609 -0.608150 
0.130490 -1.080500 -0.579020 
0.591490 0.045383 -1.435700 
-0.531180 -0.344790 -0.458800 
-0.140000 1.309700 -0.119360 
-0.303010 -0.832480 -0.460830 
-0.759310 0.504030 -1.017100 
0.397620 1.032700 -0.677550 
-0.322960 1.241200 -0.728760 
0.766820 0.056187 -0.441110 
0.474980 1.586800 -0.139790 
-0.423360 -0.364000 -0.647630 
0.509570 0.992730 -0.346470 
0.484440 0.191970 -0.696540 
0.160490 -1.596700 0.003652 
0.608360 -0.315290 -0.379890 
0.341360 1.198100 -0.955960 
-0.117400 -0.702760 -1.560600 
-0.675690 -1.006100 -0.324230 
-0.671420 0.777470 -0.246790 
0.188240 -1.237400 -0.802550 
-0.415890 -0.316560 -0.799810 
0.486250 1.132000 -1.039900 
-0.556800 0.942540 -0.464760 
-0.470990 -0.440130 -0.484920 
-0.881440 0.003613 -0.058810 
0.099618 1.319300 -1.229100 
-0.575420 0.755720 -0.712280 
0.124180 1.371000 -0.378490 
0.279530 -1.034100 -0.071770 
0.202050 -1.083100 -0.788400 
0.308690 -1.559400 0.132110 
-0.125410 -0.753980 -0.783090 
-0.868090 -0.477230 -0.206480 
-0.842980 -0.247540 -0.142850 
0.331990 -0.905860 -0.223640 
0.598960 0.198540 -0.475700 
0.542060 -0.602710 -0.506250 
0.139920 -1.289700 -1.139900 
0.208510 -1.045900 -0.682760 
-0.171150 -1.149500 -1.275200 
-1.158100 0.940140 0.024735 
-0.877180 0.843760 -0.025589 
0.598620 -0.387920 -1.099200 
-0.276090 -0.482460 -1.033300 
-0.061438 -0.997240 -1.022400 
0.628430 0.066041 -0.826260 
-0.780490 0.152410 -0.721090 
0.449160 1.075400 -1.045600 
-0.151420 -0.668810 -0.952250 
0.170120 -1.238000 -0.704340 
0.578680 -0.896730 0.010102 
0.741020 0.003318 -0.983860 
0.831800 0.457850 -0.301510 
0.069872 -1.301900 -0.618010 
0.107460 -1.191000 -1.347600 
-0.673760 1.143200 -1.249800 
-0.121720 -1.274600 -1.440500 
0.880530 0.414090 -0.288820 
1.105200 0.235270 -0.205660 
-0.722700 -0.166370 -1.304200 
-0.447250 -0.407780 -0.545580 
0.325960 -1.079900 0.013778 
-0.710630 0.018546 -0.731570 
0.582650 -0.324360 -0.457640 
-0.823250 0.486640 -0.966850 
-0.829540 0.496630 -0.898320 
0.423120 0.206150 -1.284200 
0.413610 0.210680 -1.092700 
-1.197700 0.103060 0.010182 
0.024094 -1.504200 -0.169860 
0.136200 -1.314300 -0.164110 
-0.792030 0.171430 -0.158260 
0.329960 1.004300 -1.101500 
-0.642890 1.609000 0.070689 
-0.972080 0.471610 -0.103730 
-0.587170 -0.055867 -0.724790 
0.330150 0.723340 -0.704970 
-0.638370 0.581500 -1.107500 
-0.377470 -0.750920 -0.438160 
0.134480 1.172600 -0.647270 
-0.083588 1.241500 -0.382910 
0.677320 1.263700 -0.211390 
0.753420 -0.875830 0.082804 
-0.778640 0.034655 -0.796700 
0.229360 -0.960960 -0.391420 
-0.857260 0.373400 -0.211310 
-0.366080 1.161600 -0.433460 
0.581910 -0.225040 -0.869240 
0.118980 1.601900 -0.019956 
0.943160 -0.762430 0.086528 
-0.650400 -0.465270 -0.304500 
0.449430 1.071000 -0.726050 
-0.177270 -1.198300 -1.188200 
-0.617110 -0.217790 -0.372490 
-0.196080 -1.289400 -0.298700 
-0.035011 -1.197400 -0.942190 
1.105600 -0.144730 -0.038244 
0.647620 0.348900 -0.385520 
0.853910 -0.574800 0.026255 
-1.077100 0.282680 -0.005911 
-0.712050 0.218680 -0.590600 
0.036030 -1.453100 -0.253750 
0.886950 -0.888560 0.102870 
0.149060 -1.243900 -1.208700 
-0.232650 -0.552560 -0.950940 
0.673330 -0.471310 -0.166560 
0.909130 0.220070 -0.221570 
0.094735 -1.188100 -0.221100 
-0.661450 0.901810 -0.198370 
-0.900800 1.180500 0.019041 
0.281930 1.555600 -0.093807 
0.125320 -1.238800 -0.069770 
0.929950 0.023915 -0.149440 
-0.791880 1.174900 -0.060965 
-0.576110 0.785520 -0.989060 
-1.201800 0.816860 0.017813 
0.761430 0.386250 -0.319730 
1.007400 0.234480 -0.201560 
-0.144260 -1.237900 -0.537390 
0.292740 1.144700 -0.628080 
-0.748450 0.582260 -0.713180 
0.287980 0.864060 -1.158500 
-0.753650 0.629520 -0.308350 
-0.262340 -1.310100 -0.261160 
0.409720 1.416600 -0.170290 
0.319040 0.928270 -1.343400 
-0.581010 0.960930 -0.906840 
0.503830 0.551540 -0.462090 
0.704320 -0.144470 -0.299250 
0.304500 0.713250 -1.313100 
0.575640 -0.827680 -0.072129 
-0.707300 0.543670 -0.962200 
0.712260 0.029945 -1.279000 
-1.180800 0.745530 0.018465 
-0.695610 0.659050 -0.339770 
0.309620 0.570040 -1.063700 
0.314670 0.648890 -0.833210 
-0.130470 1.216800 -0.336940 
-0.675750 -0.812050 -0.301940 
0.676730 -0.175570 -1.442500 
0.101260 -1.427900 -0.395750 
0.787100 1.192200 -0.198830 
-1.026600 -0.402180 -0.151600 
0.719880 0.024696 -1.364500 
0.442230 1.038000 -0.485210 
0.498110 -0.850640 -0.413060 
-0.410180 -0.858790 -0.388290 
-0.053526 -0.936780 -0.885640 
0.768460 -0.004550 -0.507450 
-0.486980 -0.272160 -0.617060 
-0.557130 1.000200 -0.530940 
0.766810 -0.963150 0.106160 
0.788240 1.341400 -0.195610 
0.444170 0.208790 -1.430100 
-0.126290 -1.335800 -0.209240 
0.117680 -1.083700 -0.511060 
1.155700 -0.368280 0.004630 
0.647230 -0.687120 -0.116480 
0.326150 0.638950 -1.415100 
-0.922950 -0.599850 -0.232230 
-0.487050 1.274400 -0.046432 
0.280040 -0.922210 -0.421370 
-0.261290 1.223700 -0.690910 
-0.384370 -0.507410 -0.558620 
-0.890160 -0.067385 -0.062028 
0.113980 1.507400 -0.071534 
-0.691650 0.606200 -0.677330 
-1.046600 1.114700 0.025737 
0.334380 1.196400 -1.034400 
0.036358 -1.197600 -0.819140 
-0.030801 -0.997480 -1.278000 
-0.758170 0.337010 -0.777370 
-0.578120 1.365200 -0.947160 
-0.744860 1.096600 -0.108710 
0.307390 1.443300 -0.141880 
-0.574550 0.830330 -0.826810 
0.600820 -0.438460 -1.055700 
0.426010 1.078100 -1.577300 
-0.031579 -1.182200 -0.549960 
-0.193740 1.266000 -0.161200 
-0.637840 -0.234390 -1.384100 
-0.119900 -0.702730 -1.470300 
0.490580 1.127700 -0.882690 
-0.937870 -0.153660 -0.062086 
-0.548160 0.998760 -0.608430 
-0.225680 -1.157400 -0.601330 
-0.608850 0.656050 -1.121400 
-0.006930 -1.260900 -1.420000 
-0.289910 -0.455960 -1.365200 
-0.775650 0.347480 -0.302400 
-0.677920 -0.001971 -0.788640 
-0.704630 1.035000 -0.129450 
-0.785560 0.639140 -0.229040 
-0.633590 -0.605640 -0.304900 
-0.710050 0.095166 -0.310700 
0.506730 0.209850 -0.619440 
-0.808420 0.016372 -0.862050 
-0.863850 0.610810 -0.164380 
0.340940 0.860310 -0.624180 
-0.723840 1.235700 -0.193940 
0.565900 0.174930 -0.543530 
-0.873330 0.378990 -1.023300 
-0.909920 0.415970 -0.178320 
-0.496620 -0.632680 -0.382350 
-0.713310 0.025010 -0.263740 
0.642380 -1.190400 0.141250 
0.306810 -1.168500 -1.111200 
-0.152490 -0.680600 -0.866230 
0.666540 -0.174250 -1.368200 
-1.103100 -0.200970 -0.056392 
-0.023894 -1.651700 -0.100450 
0.497730 -0.839860 -0.168610 
-0.422230 1.272200 -0.686770 
0.395510 1.217500 -1.423800 
-0.950240 0.242600 -0.045134 
0.238180 -1.088700 -0.863870 
-0.630110 1.091000 -0.538430 
-0.945070 0.310850 -1.169400 
0.771080 -0.091289 -1.497900 
0.297730 0.863770 -0.790890 
-0.591210 1.216000 -1.066600 
0.739260 -0.539850 -0.058663 
-0.103980 -1.202200 -0.942590 
-0.780160 -0.834660 -0.297170 
-0.120140 -0.711500 -1.211100 
0.947480 0.127870 -0.175100 
0.413600 0.215700 -0.999220 
-0.018525 -0.917430 -1.357800 
0.150190 1.131400 -0.796440 
0.693120 -1.238600 0.144240 
0.419400 1.034600 -0.560010 
-0.617430 0.646080 -0.947630 
0.110360 -1.575100 -0.046602 
-0.712830 0.310510 -0.659880 
-0.169190 -0.794630 -0.631830 
0.660140 -0.141110 -0.569000 
0.160050 -1.036100 -0.533380 
0.462540 0.140950 -1.275300 
-0.081681 -1.200000 -0.677820 
0.069251 1.371500 -0.434560 
-0.720510 0.315340 -0.393200 
-0.332530 -0.405360 -1.196100 
0.196370 -1.036200 -0.189030 
0.641680 -0.308940 -0.304390 
-0.305990 -1.220200 -0.332800 
-0.666140 0.010383 -0.448430 
-0.767410 -0.484180 -0.241710 
-0.182510 -1.044300 -0.568880 
-0.819310 0.413210 -0.623850 
-0.572410 1.080400 -0.945820 
-0.676500 1.259600 -0.257510 
-0.640460 1.295600 -0.111420 
0.417260 1.024500 -1.452600 
0.873840 0.056939 -0.223960 
-0.086736 -1.198000 -0.791300 
0.231620 -1.124200 -0.936570 
-0.364800 -1.430100 -0.204520 
-1.113400 0.130010 0.013741 
-0.240020 -0.517260 -1.455300 
-0.120610 -0.704300 -1.382400 
0.531470 0.158610 -1.600900 
0.703880 -0.110450 -1.042500 
0.238210 -1.292300 -0.867670 
-0.088213 1.358100 -0.082838 
-0.958860 -0.536470 -0.209140 
-0.605670 0.688110 -0.588520 
0.631680 -0.702980 -0.982260 
0.252090 -1.406600 0.126290 
0.573020 -0.308810 -0.993680 
-0.644360 1.019400 -0.231460 
-0.589520 1.101800 -0.669030 
0.018004 -1.197900 -0.499640 
-0.117660 -1.284200 -1.621100 
-0.263390 1.347600 -0.038476 
-0.507330 -0.194600 -0.696250 
0.451190 1.234200 -0.933710 
0.234860 -0.982540 -0.230290 
-0.618310 -0.080428 -0.448450 
-0.131480 1.327100 -0.698790 
0.447000 1.070700 -0.803940 
-0.758930 -0.720560 -0.277040 
0.579340 0.046132 -1.345400 
-0.577580 -0.243770 -1.340700 
-1.238100 0.692880 0.007351 
0.353280 0.419880 -1.355800 
0.455230 0.144530 -1.134600 
-0.202800 -1.144900 -0.934890 
0.672040 -0.826510 -0.833500 
-0.754470 0.586870 -0.636290 
-0.728550 0.564610 -0.859800 
0.599350 -0.728720 -0.246730 
0.955160 0.535120 -0.298990 
-0.022469 -0.989430 -1.412800 
-0.617230 -0.287210 -0.358460 
0.610240 0.887870 -0.294560 
-0.401230 -0.322200 -1.016800 
1.178400 -0.222020 -0.029220 
-0.074860 -0.790900 -0.956340 
0.564840 -0.356140 -0.921030 
0.079004 1.237100 -1.112400 
-0.896520 0.359430 -1.139300 
-0.635420 0.588450 -1.327200 
0.694590 0.781920 -0.284300 
-0.139200 -0.919610 -0.602910 
-1.018100 0.087522 0.000797 
0.386280 1.270100 -0.320180 
0.162930 -1.387800 -0.961050 
-0.224080 1.320700 -0.820520 
-0.385160 -0.348120 -1.231300 
0.006333 1.352800 -0.199640 
0.039845 -1.197600 -1.287500 
0.065989 -1.552700 -0.100100 
-0.249970 -1.576300 -0.151950 
0.226340 1.117800 -0.693650 
0.647950 -0.400130 -1.228000 
0.699690 -0.588660 -1.117900 
0.442830 1.233000 -1.011000 
0.534550 -0.503260 -0.547680 
-0.037848 1.432900 -0.034043 
0.501360 0.098560 -0.949480 
0.765530 0.226630 -0.305970 
-0.534260 -0.510740 -0.384720 
-1.174200 0.267660 0.006945 
0.737110 -0.077946 -0.650800 
0.506300 0.086605 -1.173900 
-0.632840 1.148800 -0.641930 
0.581630 -0.239630 -0.947700 
-0.688530 0.052789 -0.396080 
-0.565000 -0.197750 -1.076900 
-1.098200 0.852510 0.028807 
0.614950 -0.343220 -1.206500 
0.616170 -1.260400 0.155860 
-0.804660 0.365720 -0.822700 
0.721530 1.037300 -0.224080 
-0.025568 -0.927720 -1.183100 
-0.042067 -0.850520 -1.093200 
0.706970 0.140510 -0.407640 
0.616470 -1.081500 0.113220 
-0.775670 -0.414960 -0.227890 
-1.045000 0.533920 -0.031580 
0.226310 -1.347200 -0.773370 
-0.727130 -0.036285 -1.013800 
-1.175700 0.614980 0.012350 
1.098100 -0.210370 -0.021107 
-0.801970 0.339700 -0.238280 
0.592590 -0.643910 -0.945180 
-0.481700 -1.270600 -0.287340 
0.816050 -0.370420 -0.062024 
0.154670 1.248100 -0.496310 
0.174250 1.569200 -0.053338 
0.374230 0.860300 -0.547410 
0.334380 -0.997950 -0.059732 
-0.578540 0.840920 -0.905380 
-0.732390 0.254710 -0.291110 
-0.851370 0.463050 -0.442940 
0.158530 1.185100 -0.545400 
-0.641490 1.254700 -0.687620 
0.550920 1.146100 -0.415650 
0.432840 -1.180200 0.123450 
0.358280 0.726100 -0.624580 
-0.188370 1.192700 -0.381410 
0.931670 -0.531520 0.038834 
-1.037300 0.770270 0.016899 
-0.935650 -0.290180 -0.118120 
-0.841810 1.145900 -0.008473 
-0.709130 0.211660 -0.348370 
0.607410 -0.869270 -0.611970 
-0.634720 0.697840 -0.416920 
0.633020 -0.161760 -0.733350 
-0.363410 -0.476420 -0.625150 
0.554730 -0.447640 -0.806910 
0.113140 1.167800 -0.752510 
0.568560 -0.431430 -0.437620 
0.372540 0.515770 -0.703910 
0.758850 -0.805750 0.061164 
0.083338 1.216700 -0.788200 
0.397530 1.032300 -1.316800 
0.560810 -1.307200 0.168400 
-0.304540 -1.094400 -0.372550 
-0.015960 -1.235000 -1.130700 
-0.611950 0.649710 -1.019200 
0.205250 1.190400 -1.236100 
0.242130 -0.961380 -0.482680 
-0.593530 0.926260 -1.038600 
0.743820 -0.002892 -1.063600 
-0.245940 -0.516970 -1.369600 
1.063100 0.089467 -0.122380 
-0.781490 0.385480 -0.480360 
-0.176360 -1.063000 -0.722650 
1.118700 0.139520 -0.150420 
0.278940 1.159500 -1.120900 
-0.568030 0.877400 -0.435340 
0.040093 -1.224400 -1.165800 
-0.101680 -1.100400 -1.436100 
0.440010 0.322660 -0.660900 
-0.676430 -0.205780 -0.287290 
0.645620 -0.156270 -1.105200 
-0.201860 -1.137200 -1.016800 
0.039986 -1.257800 -0.422670 
-0.847700 0.196580 -0.937250 
-0.245170 1.196400 -0.289510 
-0.150610 1.392600 -0.031277 
0.392230 1.239000 -0.634010 
-1.009000 -0.246150 -0.081211 
0.179840 -1.322200 -0.319730 
0.547390 -1.022900 0.075315 
0.423370 1.226200 -1.212600 
0.655780 -0.170870 -1.293900 
-1.134600 1.003400 0.025318 
-0.912400 0.675100 -0.060327 
-0.654070 0.587790 -0.973570 
0.451530 1.284100 -0.449970 
-0.693200 1.017000 -1.323800 
-0.665820 0.522650 -1.343500 
-0.475940 1.212600 -0.151090 
-0.614970 -0.921430 -0.320720 
-0.548530 1.302400 -0.019805 
0.681850 -0.248690 -0.252160 
0.287860 0.789320 -1.162700 
0.680560 -0.975180 0.092893 
-0.314640 -0.424040 -1.029900 
0.564380 -0.336040 -0.536510 
0.569870 -0.579690 -0.342800 
-0.605380 1.218000 -0.817800 
0.664740 -0.855260 -0.740140 
-0.160570 -1.050500 -0.796720 
0.893140 -0.252560 -0.051370 
-0.837230 0.511730 -0.647230 
0.571010 0.166730 -1.685400 
-0.123780 -1.038000 -1.038100 
-0.655070 1.078800 -1.207000 
1.106100 -0.597570 0.048120 
-0.745510 0.070109 -0.208970 
-0.546240 0.939620 -0.668600 
1.024700 -0.137990 -0.044020 
0.215510 -1.287600 -0.736780 
0.255700 -1.504600 0.120100 
-0.030390 -1.528200 -0.129690 
0.780280 -0.427160 -0.070675 
-0.796120 1.244700 -0.035647 
0.715180 -0.099311 -0.887010 
-0.574550 0.946860 -0.384820 
0.790600 -0.246760 -0.123150 
0.376600 1.226300 -0.700560 
-0.935010 1.388500 0.019379 
0.350250 -1.197800 0.106710 
-0.269130 -0.520420 -0.822630 
-0.704880 1.110300 -0.275920 
-0.343830 -0.435210 -0.735620 
0.782600 -0.067011 -0.317350 
0.363330 0.793470 -0.585530 
-0.707730 1.152300 -0.362840 
0.283820 0.866550 -1.062800 
0.575130 1.157900 -0.352480 
-0.840730 0.514230 -0.536960 
-0.291080 -0.567970 -0.667600 
-0.588470 0.913020 -0.965600 
0.472220 0.141070 -1.370000 
-0.267900 -0.635200 -0.633340 
0.718870 -0.440150 -1.287500 
0.554980 0.564430 -0.410390 
0.389110 0.909350 -1.526500 
0.513990 0.505740 -1.720900 
0.818050 0.031524 -0.322180 
0.350360 0.508920 -0.786640 
-0.729650 1.457600 0.058025 
0.267850 -1.068000 -0.807040 
-0.471730 1.284100 -0.639020 
-0.254250 1.194000 -0.591520 
0.098262 -1.236300 -0.267910 
0.110950 -1.505900 -0.115520 
0.197990 -1.175600 -0.909320 
0.408190 0.664650 -0.552000 
0.517010 1.402600 -0.196690 
-0.842200 0.162670 -0.879780 
0.294790 0.941420 -0.923660 
0.864550 0.956640 -0.237960 
-0.733890 0.356570 -0.609890 
0.030752 1.280500 -0.935870 
-0.060983 1.624200 0.038354 
0.062472 -1.305400 -0.543430 
-0.161070 -0.696540 -0.783170 
0.702720 0.045939 -1.030300 
0.611750 -1.364400 0.167270 
0.420460 1.644900 -0.124730 
-0.092422 -0.952720 -0.725670 
-0.705020 0.318390 -0.560470 
0.490570 0.869210 -0.384630 
0.617850 0.141900 -0.506980 
0.372810 0.347180 -1.349300 
0.630150 -0.201110 -0.389580 
-0.555440 1.005100 -0.802990 
0.390550 0.421120 -1.508100 
0.106290 1.219800 -0.689130 
-1.150000 0.042402 0.009642 
0.081377 -1.485800 -0.208610 
-0.947580 -0.023040 -0.026706 
0.217100 1.505200 -0.105440 
-0.451330 1.384000 -0.817960 
-0.563640 1.260400 -0.441370 
0.924320 -0.320790 -0.017251 
-0.086246 -0.998600 -0.858980 
-0.670350 1.249600 -0.343680 
-0.132880 1.250300 -0.223860 
0.758960 -0.305020 -0.134510 
0.408060 -0.879430 -0.535880 
-0.522280 1.327400 -0.665460 
-0.209840 1.255900 -0.721960 
1.046000 0.282880 -0.227840 
0.195170 -1.293400 -1.179700 
-0.053305 -1.045600 -1.513500 
0.142770 1.320900 -1.290500 
-0.101560 1.475800 0.009623 
-0.618010 0.660030 -1.367800 
0.309350 -1.084400 -0.996600 
0.465010 0.260730 -0.659220 
-0.470820 1.334800 -0.725480 
0.707340 0.038339 -1.153500 
0.415350 0.862150 -0.476630 
-0.029340 1.341200 -0.458830 
-0.206960 -0.582680 -1.289100 
-0.039918 -0.845830 -1.179200 
0.621960 -0.418040 -0.292730 
0.291620 0.717320 -1.116200 
0.296940 0.942170 -1.106500 
0.015583 1.423900 -0.073642 
-0.829260 -0.040846 -0.100820 
-0.100700 -1.045300 -1.165400 
0.052854 1.378000 -0.666590 
0.401650 0.524200 -0.626510 
0.633380 -0.469520 -0.231290 
0.732020 -0.246480 -0.183900 
0.562490 -0.250420 -0.718260 
-0.849500 0.393260 -1.178900 
-0.267610 1.723300 0.072895 
-0.617190 -0.751780 -0.311100 
0.557300 1.310600 -0.328850 
0.313830 -1.262900 0.122300 
-1.263600 0.414200 -0.002152 
-1.001000 0.162960 -0.010593 
0.526860 0.685700 -0.400190 
-0.700150 0.062874 -0.535220 
-0.670190 1.142500 -0.518400 
-0.424110 1.192700 -0.526500 
0.747350 0.670120 -0.294880 
0.304060 0.646480 -0.923790 
-0.203510 -0.593970 -1.121800 
0.488460 1.130200 -0.960350 
0.293900 0.943000 -1.013900 
-0.393090 -0.345950 -1.353400 
-0.906060 1.261000 0.025843 
0.543800 0.498060 -0.437250 
-0.886890 -0.660630 -0.251990 
0.741060 0.015697 -1.495400 
0.114900 -1.407900 -0.563160 
-0.382240 -0.343590 -0.891020 
0.299580 -1.048400 -0.751240 
0.882020 -0.380520 -0.018234 
0.293610 1.262700 -0.269970 
-0.090090 1.470800 -0.917090 
0.392880 0.926740 -0.509670 
0.746980 -0.077940 -1.251100 
0.447780 1.073900 -0.963480 
0.365400 0.439390 -0.784710 
1.103900 -0.433350 0.024769 
-0.914540 0.366010 -0.123570 
-0.288860 -0.464900 -1.199700 
0.319140 0.781390 -1.408800 
0.561670 -0.837210 -0.475870 
0.917650 -0.078822 -0.105320 
0.602170 -0.574290 -0.244860 
0.634050 -0.496830 -1.100700 
-0.849760 0.147820 -0.093491 
-0.587330 0.719830 -1.025600 
-0.183540 -1.077000 -1.052600 
-0.815580 -0.777170 -0.283980 
0.529610 -0.517240 -0.618380 
0.362970 -0.940090 -0.107340 
-0.219180 -1.136200 -0.667700 
0.832260 -0.006598 -0.268440 
0.593680 -0.271510 -1.135500 
0.324140 0.494510 -1.208900 
0.692030 -0.341820 -1.394200 
0.744750 -0.073076 -1.171800 
-0.598480 -1.094600 -0.327500 
-0.061388 -1.292600 -1.474100 
-0.798040 1.328700 0.014064 
0.386730 -1.549700 0.161130 
0.597220 -0.725000 -0.833820 
0.173020 -1.365600 -1.037100 
0.694070 0.308630 -0.355680 
-1.006400 0.021907 -0.002913 
-0.495440 -1.199200 -0.304850 
0.137630 -1.290900 -0.238570 
-0.855660 0.325320 -0.150240 
0.602760 -0.720560 -0.639380 
-0.578940 1.637300 0.079233 
-1.254000 0.335860 0.001576 
-0.616930 0.691170 -0.502540 
0.393990 0.730100 -0.549770 
0.425140 0.901920 -1.617400 
-0.746630 0.163920 -0.638500 
-0.578800 0.795290 -1.060700 
0.548120 -0.431280 -0.733910 
0.563340 0.058763 -1.035800 
1.189000 -0.088168 -0.066624 
0.871730 -0.651230 0.054555 
0.792090 -0.045612 -1.608000 
-0.204520 -0.579490 -1.373800 
0.247800 -0.999430 -0.165540 
0.794370 0.998420 -0.227540 
0.638960 -0.348260 -1.271500 
-0.070355 -1.229300 -0.360540 
0.536330 1.349400 -0.258160 
0.085604 -1.310000 -0.962620 
-0.787260 0.376800 -0.722510 
0.650940 0.038977 -1.333900 
0.183920 1.283200 -0.376620 
0.248550 -1.232100 -0.974360 
-0.074006 1.712400 0.037366 
0.493710 0.574570 -1.728000 
-0.896090 0.913450 -0.005228 
0.511010 0.083791 -1.265400 
0.488300 1.088600 -0.464950 
0.514380 0.618880 -0.431420 
0.591870 -1.144300 0.129770 
0.314890 0.567090 -1.262100 
0.178020 -1.392000 -0.293060 
0.582650 -0.220830 -0.553030 
0.892430 -1.059300 0.107600 
0.537540 -0.882490 -0.552200 
-0.046326 -0.831100 -1.523300 
0.418520 -0.991750 -0.002361 
0.412690 -1.025800 -0.755780 
-0.021560 -0.912280 -1.446700 
0.535330 0.431300 -0.463900 
-0.661310 0.886730 -1.339400 
-0.312040 -0.766000 -0.485000 
0.139340 -1.162000 -0.104210 
0.539230 -1.185900 0.139820 
0.085671 1.274600 -0.728340 
0.375210 0.366170 -0.825560 
-0.052269 -1.204500 -0.433700 
0.393530 0.348700 -1.450500 
0.560560 0.070898 -0.864180 
0.047026 -1.245100 -1.086800 
0.698520 0.968870 -0.243330 
-0.798450 0.382740 -0.376500 
0.158230 -1.421400 -0.192290 
-0.469570 -0.345170 -0.566890 
-0.323730 1.681100 0.082003 
-0.433470 -0.305400 -1.181600 
0.346170 0.492500 -1.411600 
-0.541520 -0.837910 -0.335830 
0.677010 0.121080 -0.475930 
0.357520 0.846970 -1.495900 
0.756450 0.496020 -0.318340 
-0.091498 1.243400 -0.468520 
0.283790 0.792260 -0.971010 
0.063378 1.221300 -0.886870 
-0.652810 1.059000 -0.307210 
-0.716780 0.728390 -0.213270 
0.417490 1.187900 -1.538900 
0.468690 0.176860 -0.777920 
-1.157300 0.481230 0.002468 
-0.291110 -0.458750 -1.282200 
0.381240 1.236800 -0.475750 
0.266310 1.173800 -1.201300 
0.649130 -0.150170 -1.028500 
-0.455270 -0.262470 -0.824650 
0.553580 0.240980 -0.514150 
0.643560 1.133000 -0.235640 
0.632430 -0.291790 -1.309200 
-0.027678 1.398300 -1.012900 
-0.135090 -1.038000 -0.955080 
0.960430 -0.022947 -0.106590 
0.325360 0.565880 -1.363400 
0.290780 -1.615700 0.098121 
0.355170 -1.264000 -1.255700 
0.840270 0.094630 -0.269800 
0.060331 -1.238200 -0.536670 
-0.663470 0.645440 -0.465780 
-0.590700 1.151100 -1.034000 
-0.599800 -0.047061 -0.793760 
0.701780 -0.121630 -1.197300 
0.053159 -1.314900 -0.470510 
0.120030 1.245600 -1.200800 
0.682680 0.535470 -0.339320 
0.640300 0.464830 -0.372820 
0.001903 1.394100 -0.915540 
0.502100 0.092519 -1.038400 
0.580540 -0.775170 -0.199130 
0.536150 -0.547540 -0.755710 
0.493580 1.125500 -0.806810 
0.012914 1.491300 -0.018602 
0.195550 -1.295700 -0.496450 
-0.721710 0.618980 -0.431680 
-0.169720 -1.216000 -1.317200 
0.457340 1.131100 -1.423700 
0.574410 -0.691850 -0.705860 
0.353510 0.638850 -1.516100 
-0.714480 -0.519550 -0.267700 
0.486900 -0.835370 -0.252780 
0.565510 -0.660060 -0.564500 
-0.299770 1.559900 0.074732 
0.289210 1.253500 -1.440700 
0.136340 1.406300 -0.270220 
-0.103260 1.258900 -0.550790 
-0.760670 0.103810 -0.669740 
0.437660 0.534150 -0.555280 
0.595340 1.414500 -0.181100 
1.088800 -0.278730 -0.004444 
-0.934230 0.049152 -0.028217 
-0.826990 0.561210 -0.397310 
-0.788320 0.425030 -1.239800 
-0.177490 1.437900 -0.838940 
-0.370090 1.274900 -0.077904 
0.714860 1.361900 -0.182480 
-0.452460 -0.304580 -0.671530 
0.185710 1.139500 -0.613650 
-0.457630 1.421400 0.050551 
0.549880 1.578600 -0.152920 
0.322350 1.199000 -1.154900 
-0.759950 1.207900 -0.117770 
0.240310 1.293600 -1.469900 
0.403980 0.568640 -1.611500 
-0.128850 -1.268400 -1.352200 
0.106470 -1.104100 -0.329640 
0.283050 0.867150 -0.969710 
-0.164950 1.495300 0.031872 
0.073016 -1.240500 -0.772750 
-0.314450 -0.983010 -0.390980 
0.413800 0.966030 -1.558100 
-0.778940 -0.212500 -0.178370 
0.363270 0.359030 -0.914000 
0.561570 1.058100 -0.295870 
0.113070 1.681200 -0.014694 
-0.814170 -0.298710 -0.177930 
0.344220 1.585500 -0.107900 
0.718100 -0.130800 -1.392100 
-1.035500 0.897770 0.028185 
-0.575120 1.402100 0.049439 
0.576130 -0.421640 -0.954240 
-0.405120 -0.441240 -0.585770 
0.310350 0.568460 -1.162100 
0.078071 -1.367500 -0.651590 
0.187090 -1.377600 -0.361140 
0.147990 -1.037800 -0.467140 
0.933980 -0.679890 0.072065 
0.554290 -0.509190 -0.834620 
-0.324420 -0.612120 -0.566250 
0.143060 -1.260700 -0.386430 
0.502210 -0.909320 -0.028907 
0.620000 -0.751630 -0.760510 
-0.649380 1.434300 0.058321 
0.786820 -0.105880 -1.579300 
-0.237670 -1.189600 -0.505670 
0.601200 -0.181240 -0.623780 
1.168100 -0.293860 -0.011889 
0.420550 -0.959870 -0.692570 
0.088508 1.180400 -0.933750 
-0.081978 -0.801070 -0.869160 
0.163920 -1.094900 -0.145920 
0.471070 0.338130 -0.587700 
0.752320 -0.081858 -1.331600 
-0.206000 -1.016700 -0.491460 
0.302950 0.641860 -1.214100 
-0.246890 -0.783020 -0.537600 
-0.756810 0.866730 -0.101950 
0.535700 -0.812500 -0.294100 
0.185090 -1.401000 -0.671040 
-0.250480 -0.932200 -0.453150 
-0.303500 1.166600 -0.399560 
0.401830 1.016000 -1.637900 
-0.268030 1.264000 -0.778790 
-0.470970 -0.525000 -0.439390 
-0.306490 -0.437510 -0.944930 
-0.174000 -0.875370 -0.565120 
0.519360 0.082531 -1.357700 
-0.523440 -0.289230 -1.444600 
-0.046236 -0.855950 -1.005900 
0.668280 -0.819830 0.013870 
-0.938010 -0.222010 -0.087776 
-0.026731 -1.359400 -0.231800 
0.407470 0.842080 -1.585200 
0.366100 0.979110 -1.423500 
0.662200 0.035787 -1.422000 
0.495660 1.237000 -0.682810 
-0.674590 -0.139190 -1.135800 
-0.619540 1.358700 0.017884 
0.258390 -1.335100 -1.013200 
0.412790 1.272800 -0.388760 
-0.829470 0.130890 -0.815660 
1.170300 0.086219 -0.131100 
0.313340 0.934450 -0.749180 
-0.453460 -1.128200 -0.314570 
-0.569840 1.240700 -0.272000 
-0.641720 -0.534580 -0.304530 
0.262970 1.119900 -0.810530 
0.753690 0.009150 -1.630300 
1.008900 -0.265800 -0.010890 
-0.637670 -0.021384 -0.518500 
0.944950 -0.844800 0.095224 
-0.500400 -0.235680 -1.026000 
0.945560 -0.134420 -0.067731 
0.058788 1.630100 0.005638 
-0.623090 1.265700 -0.771450 
-0.706110 -0.590850 -0.274580 
0.652110 0.834820 -0.287780 
-0.594100 0.879890 -1.157000 
0.615430 -0.732290 -0.158720 
-0.361670 1.180000 -0.264020 
1.124900 -0.521130 0.034782 
0.362200 0.347690 -1.249300 
-0.619560 1.108000 -1.077400 
-0.961260 1.220800 0.026456 
0.439710 -1.508500 0.176300 
-0.650150 1.090400 -0.472840 
-0.642580 0.957350 -1.267000 
0.352750 0.779310 -1.506400 
0.734620 -0.724100 0.012748 
0.560960 0.063669 -0.949450 
0.538580 -0.629020 -0.632150 
0.431670 1.350700 -0.227310 
-0.563730 -0.619260 -0.340900 
1.070800 -0.079227 -0.056616 
0.473460 0.476830 -0.522890 
-0.589730 0.883140 -0.353160 
-0.038834 -0.841300 -1.264800 
0.693710 0.053232 -0.868660 
0.802140 -0.493870 -0.028807 
-0.655450 -0.019327 -0.858110 
0.595500 0.373050 -1.689400 
1.064200 0.189230 -0.173900 
0.153050 -1.361500 0.024239 
-0.562790 0.814120 -0.659990 
-0.709970 0.318870 -0.459810 
0.734350 0.026093 -0.669280 
-0.177150 1.315800 -0.749470 
-0.231330 -0.567170 -0.866050 
0.020732 -1.601900 -0.091410 
-0.745220 0.801010 -0.137480 
-0.620230 0.760930 -0.368540 
0.442960 0.245560 -0.738110 
0.171090 -1.219600 -1.395100 
0.382940 -0.923440 -0.619690 
0.870180 0.158580 -0.232850 
0.358710 0.928070 -0.585360 
0.840630 -0.043686 -0.210780 
0.147490 -1.079500 -0.643590 
0.108900 -1.413000 -0.495270 
0.203560 1.283000 -1.379600 
0.566300 0.054862 -1.122900 
0.334680 0.996280 -0.794520 
0.339660 0.421570 -1.204800 
0.713970 -0.495430 -1.228800 
-0.025859 -0.905920 -1.534200 
0.448180 0.496850 -1.650900 
0.120900 1.174400 -1.061300 
-0.141240 -1.621400 -0.127160 
0.445880 1.076600 -1.484700 
0.542710 0.086541 -1.495400 
-0.793080 0.542450 -0.812010 
-1.018300 1.265100 0.016750 
0.332370 0.930850 -0.665590 
0.453110 0.148870 -1.041800 
-0.637370 0.584890 -1.204100 
-0.844060 0.294430 -0.958780 
0.744700 -0.052873 -0.936140 
0.048992 1.712400 0.002045 
0.417860 0.223050 -0.908640 
0.387700 0.447940 -0.702570 
-0.583960 0.750550 -0.539780 
1.034700 -0.019788 -0.081255 
-0.229330 1.513700 0.051459 
-0.791870 -0.089522 -0.140520 
-0.018747 -1.176500 -0.748760 
-0.786970 0.267450 -0.872600 
0.323980 -1.074300 -0.915670 
-0.595680 0.812580 -1.196400 
0.530120 1.242200 -0.551940 
0.664910 1.495000 -0.173710 
0.142320 -1.414600 -0.075143 
0.346450 0.992520 -0.710670 
-0.621030 1.050000 -0.412430 
0.375740 1.232500 -1.104200 
0.448160 0.801170 -0.447210 
0.435930 0.779040 -1.641000 
0.494620 -0.961430 -0.728370 
-0.141390 1.738400 0.049984 
0.703750 -0.648760 -0.048771 
0.861400 -0.793030 0.087183 
-1.099700 0.725050 0.019988 
0.300350 0.791940 -0.790380 
-0.589140 0.727780 -1.095400 
0.354900 1.222100 -0.403550 
-0.760600 0.590200 -0.557550 
0.639610 0.050808 -1.118000 
-0.694320 0.531120 -1.027900 
-0.873720 1.319300 0.028590 
0.355030 1.671200 -0.107380 
0.325010 -0.887400 -0.370270 
-0.536050 1.249900 -0.094222 
0.873000 0.521170 -0.297650 
-0.020610 -0.922960 -1.269500 
0.466190 0.842430 -1.670400 
-0.776440 -0.014537 -0.152570 
0.734210 0.014209 -0.825670 
-0.599190 0.688950 -0.673940 
-0.209550 -1.245000 -0.441340 
-1.156800 -0.029907 -0.002433 
-0.824730 -0.608440 -0.246210 
0.553190 0.439670 -1.705300 
0.622610 0.044083 -1.653000 
-0.613250 0.950640 -1.174000 
0.508920 0.355290 -0.521200 
0.530570 0.143930 -0.656110 
0.863110 -0.190250 -0.089465 
0.324270 1.331000 -0.204600 
0.238090 -1.084900 -0.056481 
0.141140 -1.043100 -0.398050 
0.262100 1.210800 -0.351250 
-0.083300 1.305600 -0.156560 
-0.867700 0.415630 -0.276600 
-0.659210 -0.046010 -0.965880 
-0.728580 1.332400 -0.007591 
-0.624370 0.736020 -1.375700 
0.345760 0.565510 -1.465400 
-0.469830 -0.919630 -0.353780 
0.356070 -1.417900 0.171960 
0.744680 0.039035 -0.553790 
0.626130 0.643200 -0.343870 
0.160920 -1.415800 -0.431890 
0.186510 -0.998760 -0.426960 
0.060662 1.275000 -0.818300 
-0.015882 1.742300 0.017115 
-0.599890 0.952550 -0.306550 
-0.075911 1.317800 -0.570850 
0.406290 0.303430 -0.781120 
0.806280 -0.135720 -0.161830 
-0.371000 1.195600 -0.589240 
0.771790 0.926950 -0.241300 
0.364090 0.989380 -0.628930 
0.416740 0.207580 -1.188000 
-0.199740 -0.579140 -1.460700 
1.036300 -0.569490 0.053497 
-0.350030 -0.376190 -0.982440 
0.050781 1.402800 -0.178540 
0.065307 -1.251100 -0.927820 
0.583010 -0.787110 -0.420760 
0.310000 -0.936600 -0.556730 
0.449260 1.075700 -1.129500 
0.529050 0.812300 -0.364430 
0.246710 -1.342600 -0.944890 
-0.843100 0.458200 -0.692680 
-0.262050 -1.161900 -0.438340 
0.522910 0.792080 -1.705200 
0.614110 -0.218300 -1.198000 
0.626440 1.232000 -0.280320 
-0.529900 -0.425420 -0.420390 
0.447910 1.074600 -1.215000 
-0.676830 0.520650 -1.252400 
0.162050 -1.239700 -0.636040 
-0.250260 1.632000 0.075174 
0.589050 0.822480 -0.321040 
0.166720 1.162300 -1.112600 
0.111190 -1.118400 -0.254200 
0.446670 1.071900 -0.882990 
1.020800 0.379060 -0.270770 
0.772700 1.119000 -0.206410 
0.798060 0.743800 -0.274030 
-0.631320 -0.217750 -1.305200 
0.121940 -1.137400 -0.178560 
-0.822720 0.888130 -0.046985 
-0.489010 -0.704500 -0.373010 
-0.699970 0.849310 -0.167550 
0.671220 -0.646700 -1.060300 
-0.652150 1.020700 -1.241100 
0.150070 -1.493100 0.006481 
0.747460 -0.067340 -0.571740 
-0.847650 0.396440 -0.896420 
-0.661050 1.327100 -0.030171 
-0.054429 -1.307700 -1.607300 
-0.002509 -1.271500 -1.504900 
0.674730 0.901430 -0.265240 
0.553960 -0.664690 -0.780220 
0.767110 -0.027107 -1.433500 
-0.710050 -0.366650 -0.263230 
-0.562060 0.880400 -0.729240 
-0.793980 0.438010 -1.152600 
-1.113800 0.541820 -0.001082 
0.874110 -0.445660 -0.003324 
-0.896270 0.194530 -0.067764 
0.416930 0.458290 -0.625850 
-0.420970 1.168300 -0.390910 
0.715710 -1.168100 0.133180 
0.296850 0.720070 -0.878970 
0.147350 -1.251500 -0.459140 
-0.410950 -0.540820 -0.498730 
-0.074085 -0.777930 -1.131200 
0.058569 -1.384600 -0.442410 
0.636570 -0.780090 -0.675220 
0.131610 1.293500 -0.543870 
0.510410 0.119590 -0.777840 
-0.417870 -0.312610 -1.099900 
-0.041585 -0.932950 -0.969600 
-0.183320 1.611500 0.062869 
-0.613080 0.742390 -1.287000 
0.301060 1.148100 -0.923270 
0.290170 0.718490 -1.019200 
-0.730610 -0.010520 -0.935160 
-0.199220 1.701800 0.064649 
-0.852120 0.391960 -1.264300 
1.059500 -0.745500 0.070608 
0.799230 -0.688130 0.038731 
0.284170 0.791350 -1.065800 
-0.597010 1.280100 -0.852240 
-0.489270 -0.375630 -0.503610 
-0.633420 0.829820 -0.280130 
-0.884830 1.443700 0.025875 
-1.052400 1.199500 0.018949 
-0.133250 -1.167100 -1.577900 
0.331220 0.493180 -1.309600 
-0.470200 1.238100 -0.543880 
0.613500 -0.954250 -0.736080 
-0.680650 0.520200 -1.125400 
0.294240 1.290700 -1.517100 
-0.585060 0.804680 -1.129800 
0.480080 1.131900 -1.163100 
0.259130 1.140500 -0.550110 
-1.054800 0.972760 0.030571 
0.793250 1.267000 -0.196020 
0.114120 -1.135400 -0.626350 
-0.173580 -0.942100 -0.537730 
0.461320 1.234900 -0.858840 
0.930530 -1.003300 0.100840 
0.299690 0.643310 -1.115400 
-0.954350 0.869800 0.009717 
0.229950 1.264500 -0.300230 
0.136210 -1.345800 -0.090863 
0.577700 1.494300 -0.159950 
0.497900 -0.902540 -0.609420 
0.518310 1.130100 -0.551850 
0.744260 -0.066982 -1.093100 
0.726290 -0.419920 -0.127280 
0.297440 -1.119300 -1.054000 
-0.809540 0.464940 -1.063800 
-1.014100 0.292780 -0.026846 
0.166280 -1.351200 -0.213220 
0.279570 -1.333000 0.129750 
0.625800 -0.544470 -1.050500 
0.295900 0.715520 -1.214200 
0.654870 0.103990 -0.549010 
-0.198580 -1.176300 -0.747820 
-0.205120 -0.651270 -0.744010 
-0.038287 1.306000 -0.230300 
0.652740 -0.232000 -1.410400 
-0.298120 -1.377300 -0.204880 
0.269160 -1.117400 0.004411 
0.631700 0.768550 -0.310890 
-0.098086 1.384600 -0.724430 
-0.575740 0.762980 -0.795930 
-0.246740 -1.094500 -0.453750 
-0.601200 0.939240 -1.108200 
-0.075305 -0.773440 -1.216600 
-0.567620 1.187100 -0.954200 
-0.248300 -0.520170 -1.285800 
-0.153200 -1.026200 -0.634650 
0.565640 0.093489 -1.582900 
-0.565440 1.244700 -0.357800 
-0.562220 1.116200 -0.801570 
-0.110910 -1.235000 -0.414230 
0.373860 0.493110 -1.513100 
-0.363070 1.163600 -0.349360 
-0.052361 -1.000200 -1.106300 
0.486410 0.742770 -0.421310 
-0.698460 0.952020 -1.345400 
-1.020100 0.704260 0.001875 
-0.592660 -0.411900 -0.359510 
-1.087000 0.477170 -0.015232 
-0.646320 0.811540 -1.376100 
-0.379040 -1.172800 -0.307120 
1.084300 -0.672680 0.060106 
0.057195 -1.252000 -1.006800 
-0.676780 0.713900 -0.291860 
-0.339550 -0.401480 -0.856080 
0.404190 0.594850 -0.589520 
0.884660 1.032000 -0.229840 
-0.190600 1.189900 -0.466320 
-0.574220 -0.165920 -0.483130 
-0.164170 -0.643510 -1.334900 
0.583600 0.696610 -0.354940 
0.569660 0.050970 -1.210900 
-0.796230 0.755560 -0.108450 
0.043751 1.257400 -1.052800 
1.000500 -0.333570 0.005556 
-0.076111 -0.769490 -1.301700 
-0.516250 1.210200 -0.324530 
-0.324370 -0.413610 -1.113600 
0.850010 0.820870 -0.259730 
-0.506670 1.369400 0.032247 
0.614880 0.305700 -1.681200 
-0.073170 -0.783420 -1.044500 
-0.862270 1.028900 -0.003110 
0.494950 1.280700 -0.503580 
0.711040 -0.541550 -1.173000 
-0.728070 0.467510 -1.264400 
0.704120 -0.119690 -0.406140 
-0.720520 0.255620 -0.699670 
-0.727510 0.671400 -0.258560 
-0.581640 0.857970 -1.017400 
-0.903270 0.355270 -1.222900 
0.439980 0.987500 -0.440410 
0.110640 1.345400 -0.491920 
-0.087512 1.347100 -0.649130 
0.357120 0.656210 -0.664670 
0.556420 -0.339870 -0.844950 
0.747800 -0.014908 -1.224800 
-0.714090 0.170240 -0.525280 
0.340730 0.427910 -0.962520 
0.584350 0.111270 -0.618790 
-0.770770 -0.646480 -0.262820 
-0.012371 -1.243100 -1.337300 
0.894460 0.315290 -0.260220 
0.096840 -1.222100 -0.343860 
0.427420 0.232970 -0.821470 
0.213810 -1.057900 -0.121480 
0.570910 0.094590 -0.698220 
0.563260 -0.575750 -0.884570 
0.287150 0.865910 -0.879050 
0.698290 0.049866 -0.949100 
0.529720 1.102600 -0.364290 
-0.078472 -0.765780 -1.430600 
-0.362370 -0.364070 -1.066800 
-0.160790 -1.223300 -1.404300 
0.384380 0.276530 -1.194100 
-0.338780 -0.398140 -1.360300 
0.723100 -0.102910 -0.512880 
0.458430 0.901690 -1.707000 
0.729000 -0.086525 -0.729900 
-0.202530 1.338400 -0.065470 
-0.066701 -1.285900 -1.385200 
-0.463450 -0.989760 -0.344400 
0.060379 1.369900 -0.579160 
-0.162060 -1.196300 -0.900800 
-0.116550 -1.096800 -1.351600 
0.334400 1.001000 -1.192900 
0.651210 -0.449930 -1.179600 
-0.681140 -0.274910 -0.283800 
-0.597870 0.753940 -0.453470 
-0.986560 1.158200 0.026734 
0.180460 -1.124400 -0.839090 
0.496330 -1.462900 0.180340 
-0.307280 1.169100 -0.481690 
0.554820 -0.297130 -0.646380 
0.967340 0.426490 -0.284660 
-0.104560 -1.004000 -0.780610 
-0.371850 -0.357610 -1.519000 
0.362640 -1.315200 0.157360 
-0.691680 1.382100 0.032586 
-0.575660 1.343800 -0.728820 
0.508170 1.502100 -0.153880 
0.029872 -1.188600 -0.579430 
-0.566120 1.250700 -0.985510 
0.351000 0.710300 -1.513200 
-0.676160 0.599730 -0.831150 
-0.117340 -1.209500 -1.019800 
-0.054423 1.439400 -0.964500 
0.088210 -1.154200 -0.411550 
1.018000 -0.641450 0.065365 
0.469970 0.407560 -0.554890 
-0.674590 -0.187180 -1.258400 
0.431270 -0.850650 -0.300850 
-0.553330 1.545700 0.081320 
-0.822190 0.030027 -0.104990 
0.309720 0.721460 -0.790000 
0.177450 -1.403000 -0.601690 
0.196040 -1.233600 0.030686 
0.103530 -1.255300 -0.191300 
0.997020 -0.711600 0.076480 
-0.120860 -0.707340 -1.296200 
-0.317460 -0.916650 -0.415960 
0.574910 -0.779270 -0.339920 
0.048518 1.236500 -0.986180 
-0.383510 -0.398430 -0.692200 
-0.131780 -1.222100 -1.099700 
-0.575700 1.231900 -0.903440 
0.737440 0.009001 -0.904560 
0.757800 0.796720 -0.267740 
-0.222750 -0.674800 -0.668570 
1.149900 -0.023977 -0.080202 
-0.094888 -1.103000 -1.523500 
0.766250 -1.213500 0.132600 
-0.572800 -0.111900 -0.916550 
-0.706760 1.575800 0.059806 
-0.453450 1.681100 0.086419 
0.624450 -0.225570 -1.270500 
0.109490 -1.089600 -0.440180 
1.185700 -0.153330 -0.047430 
0.405340 0.276350 -1.391300 
-0.625600 -0.678190 -0.307080 
0.688700 0.027819 -1.642000 
0.293960 -1.298700 -1.176900 
0.334910 0.503650 -0.874010 
