0.664910 1.495000 -0.173710 
-0.747100 1.533000 -0.675470 
1.093800 0.264260 -0.419150 
0.481620 1.549400 -1.328200 
0.922050 0.711700 -0.284080 
-0.602620 -1.121100 -0.915670 
0.320140 -1.604800 -0.251440 
-0.380810 -1.479500 -0.821470 
-0.330060 -1.494300 -1.201200 
1.178200 -0.229460 -0.058206 
0.871100 1.127000 -0.442770 
0.713090 1.448100 -0.769260 
0.865470 1.077500 -1.100900 
-0.268580 -1.573800 -0.566470 
-0.146380 -1.627800 -0.433480 
0.978880 0.393530 -1.411600 
-1.143200 0.969500 -0.768340 
1.108600 -0.589440 -0.572880 
-1.181900 0.893320 -0.263570 
0.937900 0.605860 -0.870380 
-0.967510 1.246800 -1.161400 
0.616000 -1.364300 0.053438 
0.738490 -1.187100 -0.751350 
-0.675450 -0.983180 -1.076100 
0.144010 1.699100 -0.876250 
-0.035430 1.748100 -0.245770 
0.924440 0.672710 -0.935860 
0.460270 1.633800 -0.458000 
0.769890 1.325400 -1.209600 
-0.621460 -1.100500 -0.359640 
0.417510 -1.533300 -0.223810 
-0.083950 -1.637300 -0.793250 
0.752810 1.292800 -1.536300 
0.477340 -1.480300 -0.461580 
-1.016000 -0.431030 -0.472420 
-0.894040 -0.656240 -0.575850 
0.913410 0.808790 -0.778390 
-1.251800 0.326130 -0.565050 
0.898520 0.651490 -1.471000 
-1.161200 0.904850 -0.868760 
0.321610 1.653900 -0.965120 
-1.064700 1.156300 -0.788450 
-1.042000 -0.256580 -1.161100 
0.932840 0.443740 -1.691500 
-0.886890 -0.660630 -0.251990 
1.187600 0.017088 -0.497910 
-0.040069 1.747200 -0.333660 
-1.110400 1.079400 -0.160360 
0.285110 -1.599800 -0.884710 
1.117600 0.219750 -0.326410 
0.904860 0.877620 -0.838150 
0.831160 1.209600 -1.085300 
0.393380 1.660200 -0.560270 
1.145500 0.024845 -1.394200 
-1.105400 -0.150220 -0.766780 
0.751650 1.396100 -0.845870 
0.171590 -1.665000 -0.561860 
-0.379590 -1.440200 -1.278800 
-0.782330 -0.804470 -1.097500 
-0.463060 -1.328900 -1.277300 
0.048588 -1.645800 -0.992160 
-1.253300 0.579090 -0.787890 
1.179700 -0.102780 -0.995420 
0.773890 1.376900 -0.440410 
0.713910 1.336400 -1.600700 
1.120600 -0.559290 -0.242920 
-1.148600 -0.040326 -0.569060 
-1.149700 -0.053744 -0.448710 
0.094018 1.741200 -0.239720 
0.906150 0.808340 -1.004500 
-1.052400 1.199500 0.018949 
-1.207000 0.571390 -1.270900 
0.978540 0.479100 -0.635890 
-0.694240 1.570100 -0.606660 
-0.560060 -1.207400 -0.739480 
0.882190 -1.044200 -0.640730 
-0.617050 -1.113200 -0.639010 
1.145600 -0.302920 -1.092200 
-0.440210 -1.407600 -0.246720 
-0.953050 -0.458060 -1.384900 
0.931910 0.656630 -0.353240 
1.179100 0.061391 -0.661810 
0.652060 -1.287200 -0.730320 
-0.513880 -1.189500 -1.614200 
-0.317350 -1.450900 -1.603500 
1.153100 0.137820 -0.155370 
0.810510 1.275700 -1.003800 
-1.081000 -0.265780 -0.085318 
0.803520 1.269600 -1.148100 
-1.252100 0.394440 -0.778850 
0.175680 -1.648400 -0.870790 
0.894520 0.970440 -0.261810 
0.916250 0.804690 -0.634100 
-1.263400 0.378120 -0.437010 
0.885050 0.789280 -1.430300 
0.284250 -1.622500 -0.559370 
1.186200 -0.093480 -0.861140 
0.970830 -0.945070 -0.146050 
-0.875710 -0.683250 -0.337690 
0.614240 -1.340900 -0.653130 
1.177200 0.041503 -0.885620 
0.744750 1.393700 -0.977790 
1.078700 -0.529370 -1.162900 
1.070700 0.297990 -0.759100 
1.189300 -0.138820 -0.652340 
0.281900 -1.591400 -0.971100 
-0.853730 -0.623530 -1.534200 
1.060000 -0.751620 -0.033833 
0.766260 1.388100 -0.576210 
-0.395280 1.697900 0.061877 
1.077300 0.282850 -0.229810 
-0.168460 1.741200 -0.258330 
0.853540 1.146400 -1.022100 
-0.298490 1.723200 -0.215130 
1.142300 -0.416610 -0.778140 
-0.378800 1.698100 -0.460400 
-1.262300 0.577440 -0.580840 
0.791970 -1.144900 -0.687510 
-0.084178 -1.645000 -0.573240 
-0.915990 -0.619280 -0.494780 
-0.312610 1.707900 -0.528500 
0.337480 1.683900 -0.439310 
-0.081732 -1.596300 -1.279600 
0.209640 1.715900 -0.558360 
-0.474300 1.678700 -0.051113 
0.379400 -1.529500 -0.852600 
0.355030 1.671200 -0.107380 
-0.419500 1.695600 -0.118260 
0.880660 1.076700 -0.672460 
-0.872700 -0.692150 -0.467330 
-1.197700 0.103060 0.010182 
-0.759490 -0.790270 -1.496300 
-0.092227 1.745900 -0.119580 
-0.782140 -0.818280 -0.963840 
1.156000 0.025376 -1.277400 
-0.636820 -1.081300 -0.548390 
0.914100 0.666010 -1.183300 
-0.561200 1.649200 -0.255910 
-0.884330 -0.661910 -0.817280 
-0.638130 -1.033300 -1.187600 
0.869110 1.136500 -0.551210 
1.087000 -0.468390 -1.245800 
1.069100 -0.653430 -0.880080 
-0.178840 1.730500 -0.514990 
-0.918360 -0.513690 -1.469300 
0.373680 1.592500 -1.298100 
-1.238500 0.256470 0.006236 
-1.122400 1.033000 -0.696420 
1.004500 0.421610 -0.553300 
-0.145280 -1.567600 -1.371000 
0.706250 1.458700 -0.250350 
1.126100 -0.162110 -1.511900 
1.188800 0.004264 -0.588400 
0.020562 1.742600 -0.464120 
-0.551820 1.653200 -0.167410 
-1.238300 0.643790 -0.869500 
-1.175100 0.097897 -0.782530 
1.032200 -0.817100 0.028450 
0.852860 0.899890 -1.699800 
0.761520 1.392700 -0.662290 
1.136400 -0.421680 -0.868790 
0.319880 1.639100 -1.085600 
1.067700 0.308760 -0.561400 
0.833180 1.255300 -0.429200 
-0.445500 1.672300 -0.556450 
1.166200 -0.326780 -0.156730 
-0.268800 -1.512400 -1.390400 
0.788890 1.247500 -1.425500 
0.381130 -1.556800 -0.492920 
1.182600 -0.030898 -0.941820 
-1.134600 1.003400 0.025318 
-0.636630 1.603900 -0.544490 
-0.819870 -0.779030 -0.575040 
0.649930 1.514100 -0.311220 
0.611750 -1.364400 0.167270 
-1.040800 -0.299360 -1.074800 
-0.331630 -1.507300 -1.055500 
1.158800 -0.347030 -0.714620 
0.216350 -1.583300 -1.260400 
0.973340 0.390420 -1.499000 
-1.129100 -0.126640 -0.391540 
1.070100 0.293620 -0.851390 
-0.647280 -0.961130 -1.609300 
-0.766390 1.469700 -0.967510 
-1.007200 -0.402410 -1.053200 
-1.099900 -0.096654 -0.950730 
-1.241600 0.704820 -0.358760 
0.870210 0.924320 -1.427600 
0.885120 1.046300 -0.323540 
0.823490 -1.084700 -0.771580 
-0.956700 -0.547120 -0.520270 
-0.715970 -0.847680 -1.597800 
1.189000 -0.088168 -0.066624 
1.186300 -0.150460 -0.747480 
-1.154000 -0.048718 -0.148000 
-0.642890 1.609000 0.070689 
0.763760 -1.211100 -0.456980 
0.883890 1.065900 -0.502690 
1.020800 0.379060 -0.270770 
1.175400 -0.038173 -1.080200 
0.901680 0.805580 -1.111300 
0.045266 -1.667800 -0.576430 
-0.442980 1.684600 -0.396470 
0.967330 -0.944330 0.069734 
0.495230 -1.394700 -0.935580 
-0.720030 1.508200 -0.902320 
-0.548810 -1.232400 -0.607690 
-0.414430 -1.449200 -0.584930 
0.107860 -1.672100 -0.495840 
-0.722810 -0.931340 -0.349550 
-0.328970 -1.529000 -0.755120 
-0.564920 -1.193700 -0.825370 
0.557110 1.571500 -0.770390 
-1.128000 0.966830 -0.990380 
-0.834250 -0.752940 -0.669410 
0.916680 0.784700 -0.359730 
0.870800 0.771790 -1.657400 
-1.177800 0.026513 -0.202480 
0.101620 -1.672100 -0.288070 
-0.953770 -0.515570 -1.056300 
0.872700 1.100800 -0.244720 
0.510620 -1.457100 -0.036943 
1.136100 0.172800 -0.869550 
-0.370730 -1.416100 -1.522300 
0.921770 0.594810 -1.258200 
-1.200100 0.099642 -0.248640 
1.105500 -0.541050 -0.883580 
1.003200 -0.885420 -0.206530 
0.342880 1.682500 -0.323560 
0.810090 1.180500 -1.482400 
-1.251900 0.515860 -0.877460 
0.877290 0.932910 -1.302500 
-1.238100 0.692880 0.007351 
0.018511 1.738000 -0.554140 
-1.026600 -0.402180 -0.151600 
0.832170 1.031500 -1.685500 
0.546690 -1.359800 -0.870090 
1.185400 0.031135 -0.409690 
-1.112700 -0.164830 -0.566300 
0.788240 1.341400 -0.195610 
-0.979460 1.328600 0.016479 
-0.829170 -0.677400 -1.468000 
0.468890 1.629600 -0.338660 
-0.273470 -1.562700 -0.815310 
-1.156800 -0.029907 -0.002433 
-0.949990 -0.551500 -0.757960 
0.828650 1.267300 -0.565250 
0.686320 1.483800 -0.472890 
-1.053500 1.210900 -0.241700 
-1.198200 0.838800 -0.582690 
-0.671070 1.600500 -0.141400 
1.150600 -0.403220 -0.628180 
-1.223200 0.511900 -1.169800 
-0.016438 -1.574100 -1.525100 
0.105370 -1.587400 -1.444500 
-1.111300 1.032200 -0.884690 
-0.751080 1.543900 -0.544620 
0.857270 -1.113000 -0.140800 
0.541700 1.552600 -1.085600 
0.448020 1.633100 -0.663430 
0.525560 1.600500 -0.403450 
-1.225000 0.208760 -0.554620 
0.880570 1.012300 -1.033600 
-1.162800 0.834540 -1.124100 
-0.512210 -1.297900 -0.552170 
0.564170 -1.377800 -0.727820 
-0.203290 -1.516600 -1.585500 
-0.206400 -1.533100 -1.462300 
0.384620 1.652000 -0.771630 
1.165700 -0.289800 -0.801940 
-0.394680 -1.471000 -0.346760 
-0.884830 1.443700 0.025875 
0.439120 1.623600 -0.860240 
-1.171700 0.904650 -0.677450 
-0.635150 -1.070800 -0.853890 
0.873880 1.007000 -1.180900 
-1.263300 0.370070 -0.332980 
-0.162230 1.741900 -0.171100 
1.136300 0.179060 -0.230070 
0.886890 0.942230 -1.109200 
-1.119500 0.963720 -1.085400 
1.111900 -0.285380 -1.429700 
0.347530 1.679300 -0.234700 
-1.057600 -0.325460 -0.664690 
0.557790 -1.413700 0.115770 
-1.159100 0.953460 -0.197040 
-1.261900 0.360810 -0.229470 
0.943670 0.599540 -0.421430 
-1.238500 0.708240 -0.543570 
-1.152900 0.966690 -0.546100 
0.782640 1.357600 -0.289370 
-1.235800 0.337690 -0.868110 
-0.673240 1.546100 -0.825880 
-1.188700 0.211550 -0.989910 
0.033524 1.745700 -0.176240 
-1.109600 0.959300 -1.180200 
-0.023894 -1.651700 -0.100450 
-0.898990 1.426500 -0.576120 
-0.752480 -0.888380 -0.610810 
0.935810 -1.001900 -0.248470 
-1.203200 0.833440 -0.360780 
-1.241900 0.702450 -0.266790 
-1.229100 0.576400 -1.088200 
-1.179800 0.899250 -0.422600 
-0.999480 -0.356280 -1.308000 
-1.079700 1.092200 -0.961420 
-1.068500 1.087100 -1.084400 
1.036000 0.361750 -0.624160 
-1.185700 0.699920 -1.263300 
0.318960 1.625700 -1.179800 
-0.535780 -1.251600 -0.356250 
-1.152800 0.758560 -1.372900 
-0.463560 -1.371400 -0.824390 
-1.240300 0.257480 -0.464560 
0.286730 -1.607200 -0.797210 
1.071700 -0.709650 -0.540910 
-1.049600 1.216200 -0.474160 
0.669760 1.494200 -0.694040 
-0.308700 1.693400 -0.665030 
-1.208100 0.135710 -0.441850 
1.017000 0.336040 -1.322700 
-1.075200 1.156700 -0.577990 
0.862560 1.147300 -0.788580 
-1.235400 0.227620 -0.250260 
0.290780 -1.615700 0.098121 
0.426650 -1.523600 -0.404110 
1.191800 -0.120480 -0.528160 
-0.814760 -0.739430 -1.198100 
0.853840 -1.112900 0.067147 
-0.948590 -0.510800 -1.159400 
-0.674780 -0.994200 -0.975480 
-1.179700 0.839350 -0.932730 
-0.893940 1.342700 -1.119300 
0.369980 -1.516600 -0.976440 
-0.083325 -1.624500 -0.993240 
-1.157900 0.089577 -0.911220 
-1.171900 0.837460 -1.028400 
1.153600 0.097164 -1.102300 
-1.082200 1.150200 -0.307720 
-0.976590 -0.509740 -0.435380 
-0.689780 -0.904250 -1.511800 
-1.213400 0.146270 -0.169430 
-1.031100 1.212700 -0.853020 
-1.268200 0.446130 -0.512640 
-1.089500 -0.249780 -0.415460 
-0.574430 -1.185500 -0.402960 
-0.083952 -1.645900 -0.365490 
-1.189000 0.090613 -0.571620 
-1.200900 0.836930 -0.487500 
0.920590 0.670710 -1.037400 
1.184400 -0.203620 -0.252090 
-0.319420 -1.542100 -0.485800 
1.031400 0.369920 -0.446600 
0.111510 -1.667100 -0.679450 
-1.122700 -0.035014 -0.887200 
-0.083692 -1.631700 -0.891800 
1.155700 -0.368280 0.004630 
-0.867570 -0.620930 -1.404800 
-0.208270 -1.604000 -0.500370 
-1.182100 0.887280 -0.136520 
0.908570 0.837460 -0.261940 
-0.342210 1.712300 -0.010292 
-0.291060 1.666000 -0.828280 
0.323890 1.665400 -0.850370 
-1.266400 0.571210 -0.289030 
-0.835400 1.491600 -0.038215 
-0.428940 1.693200 -0.205910 
-0.969710 -0.454360 -1.232600 
0.274960 -1.578400 -1.084400 
-1.245400 0.275890 -0.116890 
-1.266100 0.573510 -0.376110 
0.910170 0.869010 -0.575080 
-0.935930 -0.583570 -0.415630 
-1.255900 0.635520 -0.205080 
-0.212200 -1.574100 -1.082700 
0.893010 0.645750 -1.561400 
-1.222900 0.181080 -0.350120 
1.097200 0.223070 -1.117500 
-0.545550 1.594400 -0.824030 
-0.696650 -0.905350 -1.423000 
-0.240010 1.698900 -0.719400 
-0.406600 -1.459200 -0.475410 
-1.061400 -0.326530 -0.369830 
-0.869600 1.398300 -0.970770 
-0.946270 1.306000 -1.035000 
-0.249970 -1.576300 -0.151950 
-0.851950 -0.710550 -0.886510 
0.536170 1.592600 -0.285510 
1.053200 -0.767260 -0.439280 
-1.204100 0.827620 -0.202730 
-0.304760 1.720900 -0.300950 
0.941510 0.530590 -1.177500 
0.526010 -1.434600 -0.537820 
-0.924660 1.364900 -0.862020 
-1.180600 0.878190 0.022051 
0.917400 0.793620 -0.453010 
-0.848870 1.484400 -0.259010 
0.304660 -1.529500 -1.179400 
-1.204700 0.158420 -0.658790 
0.591070 1.510900 -1.189200 
-1.020200 1.274400 -0.346180 
-1.107900 1.089300 -0.375900 
-0.245170 1.713500 -0.601510 
0.360550 -1.575800 -0.125240 
-0.429010 1.646200 -0.756880 
0.164230 -1.668700 -0.350860 
-1.169900 0.018450 -0.501440 
-0.968660 1.321400 -0.791740 
-0.985550 -0.464280 -0.963410 
1.179000 -0.165350 -0.910270 
-1.263600 0.414200 -0.002152 
-0.853860 1.473100 -0.501460 
-0.648190 -1.060600 -0.447790 
0.671130 -1.310100 -0.395790 
0.383270 -1.551200 -0.580040 
1.032900 -0.821150 -0.097902 
-0.493460 -1.260000 -1.396200 
0.090053 1.741500 -0.328300 
1.188700 -0.169140 -0.419660 
-0.083637 -1.643800 -0.251820 
0.228930 1.710800 -0.066750 
-0.743490 -0.854920 -1.213800 
0.106590 1.733800 -0.023309 
-0.769310 1.537300 0.047739 
-1.152200 0.830550 -1.219800 
1.136500 0.178790 -0.773950 
1.173400 -0.272840 -0.645510 
0.963180 -0.868570 -0.876230 
-0.849780 1.462600 -0.668750 
-1.110200 -0.154870 -0.675430 
-1.062300 -0.250010 -0.982320 
-0.718930 1.572300 -0.036269 
0.846400 1.054400 -1.459800 
0.225760 -1.652600 -0.440940 
-0.530580 -1.205300 -1.312400 
0.895480 0.570530 -1.700900 
-0.211890 -1.596400 -0.745720 
1.127500 0.090346 -1.450000 
0.934560 -1.000100 -0.358380 
1.004100 -0.819920 -0.798860 
-0.604450 -1.109200 -1.012600 
-0.382950 -1.466200 -0.987020 
-1.055100 1.079500 -1.207100 
-0.519860 -1.193400 -1.523700 
-0.746970 -0.869140 -1.034500 
-1.205700 0.774910 -0.864230 
-1.016600 -0.349950 -1.168100 
-1.228300 0.279630 -0.800550 
-0.504550 1.667800 -0.335940 
-1.207100 0.706110 -1.073800 
1.124000 -0.361380 -1.186400 
0.581860 1.470800 -1.497000 
-0.627320 1.620600 -0.309950 
1.093800 -0.405970 -1.330100 
0.720120 1.353600 -1.471200 
0.903550 0.656510 -1.384300 
-1.243000 0.578570 -0.937350 
0.895320 0.989380 -0.405320 
-0.691870 -0.988680 -0.485580 
-1.080100 -0.277320 -0.298230 
0.992210 0.325670 -1.676400 
-1.043100 1.216600 -0.648890 
1.056300 -0.764780 -0.339940 
0.803700 1.324200 -0.502040 
-0.596930 1.633400 -0.038118 
0.857310 -1.111900 -0.251160 
-0.457930 -1.385600 -0.353240 
-0.016451 -1.591400 -1.409300 
-0.108990 1.711000 -0.766890 
0.550340 1.566900 -0.890960 
-0.957660 1.313800 -0.926930 
-1.197200 0.703420 -1.168400 
1.109500 0.091166 -1.619900 
-0.936540 -0.509310 -1.307900 
-1.270100 0.508950 -0.448910 
-0.793080 1.490800 -0.773170 
-0.938360 1.388800 -0.058330 
-0.914170 -0.565920 -1.223000 
1.185400 -0.183120 -0.163780 
-1.268200 0.426370 -0.161810 
-0.984830 -0.480980 -0.816930 
0.879720 0.782990 -1.518500 
-0.573360 1.623500 -0.608150 
1.149200 -0.239490 -1.190700 
1.058800 0.280370 -1.198500 
-0.894550 1.441100 -0.150350 
1.172400 0.033260 -1.021800 
-1.109400 -0.186320 -0.109920 
-0.221520 1.734500 -0.093221 
0.146410 -1.663300 -0.027070 
0.826220 1.111600 -1.538200 
-0.426540 -1.421800 -0.887280 
0.990120 0.400620 -1.208500 
1.162900 -0.237770 -1.021300 
0.837490 1.213400 -0.944690 
-0.690470 1.588000 -0.368910 
-0.112960 1.732400 -0.576040 
0.087059 1.676700 -1.038500 
0.205200 1.653000 -1.138400 
-1.008300 1.272100 -0.711080 
0.562640 1.572800 -0.684240 
0.797640 1.262000 -1.262900 
-0.875510 -0.683050 -0.709710 
0.219690 1.719100 -0.259440 
1.141100 -0.459250 -0.543300 
0.619290 -1.363500 -0.056961 
-1.080500 -0.153440 -1.012800 
-1.239700 0.395600 -0.938680 
0.145530 1.723100 -0.628120 
-0.984510 1.332200 -0.278910 
-0.788080 1.530400 -0.146010 
1.124900 0.158950 -1.184400 
-0.704400 -0.909190 -1.297500 
-0.996660 -0.470060 -0.564900 
-0.204640 1.732200 0.062765 
-0.174410 1.738400 -0.366270 
-1.071200 1.013500 -1.290800 
-0.923410 -0.580270 -0.981400 
-0.583220 -1.075800 -1.566900 
-0.439690 1.659500 -0.668950 
0.737550 1.387000 -1.118400 
0.204460 1.682800 -0.941610 
-1.019400 1.267200 -0.038935 
1.034000 0.349750 -0.921130 
0.162810 1.728600 -0.129900 
1.188000 -0.001321 -0.248490 
1.001500 -0.885610 -0.347770 
-1.240600 0.697580 -0.114160 
0.112670 -1.662500 -0.773360 
0.095959 -1.668500 -0.143630 
0.909770 0.809500 -0.903830 
0.958670 0.540500 -0.489560 
0.689630 1.429600 -1.208700 
1.124900 -0.521130 0.034782 
-1.253600 0.630740 -0.056797 
-0.623950 -1.020000 -1.474400 
0.048084 -1.655600 -0.860050 
0.532690 1.512300 -1.412800 
0.871510 1.081100 -0.958990 
-1.262300 0.514680 -0.704670 
-0.166560 1.689900 -0.839840 
0.017520 1.729200 -0.667740 
0.769280 -1.216400 -0.132150 
-0.340270 -1.518000 -0.184130 
-0.983350 1.331400 -0.144470 
-1.228500 0.709720 -0.791850 
0.658180 1.493400 -0.876500 
-1.258700 0.390160 -0.646670 
-0.900270 1.435800 -0.351200 
0.982060 -0.877830 -0.720350 
0.081489 1.717000 -0.767250 
1.045300 -0.768910 -0.609140 
1.143200 -0.105370 -1.429400 
-0.017032 -1.630200 -1.081500 
0.417250 1.648500 -0.166670 
0.536070 1.533200 -1.261900 
0.799330 1.160100 -1.661300 
-0.020170 -1.660000 -0.500830 
1.181900 0.031513 -0.108300 
1.058000 0.321920 -0.362530 
-0.657020 -1.043700 -0.689480 
0.545780 1.560900 -0.986080 
0.205240 1.698200 -0.808380 
-1.034100 -0.352550 -0.946830 
0.779040 1.227800 -1.599500 
0.903250 0.914770 -0.340890 
1.149600 0.156410 -0.386210 
-1.224600 0.192980 -0.060947 
0.216560 -1.655900 -0.259330 
-1.126500 1.031800 -0.602220 
1.164900 -0.109200 -1.206200 
-1.239500 0.514880 -1.023000 
0.461640 -1.497900 -0.110450 
0.151410 1.732300 -0.394690 
0.515730 1.604800 -0.528500 
-0.955650 -0.529960 -0.898980 
-1.071900 -0.296830 -0.492140 
0.383170 -1.538800 -0.747210 
-1.191600 0.840380 -0.741620 
-0.992340 1.189200 -1.231900 
0.818020 1.277500 -0.836330 
0.432360 1.603900 -1.076500 
1.158300 0.136420 -0.553860 
1.164400 -0.344560 -0.244200 
0.977010 0.481120 -0.418410 
-0.828480 -0.758810 -0.317180 
-1.202900 0.820240 -0.045110 
0.768990 -1.216100 -0.223240 
-0.818700 -0.752840 -1.021600 
-0.963980 -0.527820 -0.225880 
0.767010 -1.214200 -0.354060 
-1.106700 -0.200020 -0.342820 
-0.770040 -0.856490 -0.375020 
-1.142700 -0.086773 -0.255140 
0.162690 -1.589900 -1.354400 
0.908520 0.874300 -0.686910 
0.247700 -1.638700 0.024386 
-1.158700 0.944320 -0.038591 
0.922460 0.739430 -0.692610 
1.100700 -0.633900 -0.304440 
0.505020 -1.459800 0.054775 
-0.487330 -1.339800 -0.623970 
0.373100 -1.566900 -0.312650 
1.185200 -0.195090 -0.572450 
-0.739630 1.562600 -0.248670 
0.974760 0.474370 -0.865480 
-0.201280 -1.603600 -0.245670 
1.044600 -0.639640 -1.102900 
0.429610 1.587400 -1.210000 
-0.802230 -0.807990 -0.489100 
1.077600 -0.654920 -0.778180 
0.041735 -1.669200 -0.366900 
-0.313310 -1.545600 -0.374590 
0.784130 1.338300 -0.924010 
-1.122400 -0.140900 -0.032805 
1.138100 -0.364380 -1.026500 
1.077600 0.214630 -1.432100 
-0.765740 -0.863230 -0.707760 
-1.033600 1.141400 -1.148900 
0.951470 0.537900 -0.931900 
-0.078318 1.741800 0.034685 
0.599950 -1.325000 -0.796240 
-0.147440 -1.588900 -1.182400 
-0.702030 -0.963200 -0.793910 
0.999470 0.328300 -1.582800 
-0.943610 1.383200 -0.473330 
0.496330 -1.462900 0.180340 
0.985960 -0.810850 -0.941370 
-1.157500 0.960700 -0.355640 
0.718280 -1.263500 0.143840 
0.839110 1.223200 -0.207930 
0.813770 -1.165300 -0.043521 
0.627020 1.533200 -0.565310 
0.210800 -1.656300 -0.168670 
0.621950 -1.353100 -0.460350 
1.027000 0.342350 -1.129000 
-0.325480 -1.535800 -0.631990 
0.943840 0.604460 -0.562430 
-1.268300 0.494020 -0.085952 
-0.530640 -1.265300 -0.466570 
1.002600 -0.883660 -0.036844 
-1.053700 1.206600 -0.125730 
-0.809310 -0.788090 -0.780960 
-0.515650 1.661100 0.084646 
0.903520 0.930230 -0.489440 
1.135600 0.185370 -0.682380 
-0.843380 -0.678100 -1.301300 
0.633520 1.448600 -1.413500 
-0.420120 -1.376100 -1.398400 
-1.075900 -0.257340 -0.768470 
1.138800 -0.039011 -1.494100 
0.896280 0.801060 -1.224900 
-1.104800 1.093000 -0.499170 
1.154900 -0.108630 -1.316200 
0.806600 -1.157400 -0.512530 
0.925160 -0.993090 -0.585370 
1.173100 -0.294280 -0.352040 
0.222680 -1.596600 -1.169500 
0.855770 1.182900 -0.358810 
-0.021527 1.744900 -0.048479 
0.895110 -1.059500 0.012695 
0.255960 -1.637800 -0.069228 
-1.187300 0.158440 -0.856100 
1.086600 0.217350 -1.308800 
0.038585 -1.666500 -0.222550 
-0.452310 -1.309500 -1.524700 
0.990410 -0.881630 -0.615900 
-0.501050 -1.278100 -1.161000 
-1.014700 1.274600 -0.570540 
0.336430 -1.582300 -0.672550 
0.810720 -1.163500 0.123040 
-0.632020 1.592300 -0.664490 
-0.736020 -0.916300 -0.522920 
0.899720 0.943950 -0.742250 
1.164300 0.113310 -0.286960 
-1.037500 -0.367380 -0.779230 
-0.766920 -0.790610 -1.408700 
0.924230 0.734490 -0.557980 
0.569080 -1.408600 -0.144830 
0.855540 0.984070 -1.510300 
1.131800 0.164270 -1.038900 
0.934180 -1.003500 -0.042164 
1.111400 0.154400 -1.380300 
1.066700 0.212500 -1.562200 
-1.028100 -0.404330 -0.343110 
-1.228300 0.393690 -1.045900 
-0.785270 -0.735010 -1.574700 
-0.141810 -1.622500 -0.153820 
1.040500 0.272560 -1.484500 
-1.009400 -0.437950 -0.709260 
1.003800 0.414100 -0.800690 
-0.891050 1.416200 -0.749870 
-1.083100 1.137200 -0.038082 
-0.568120 -1.153000 -1.193000 
1.134000 -0.502740 -0.347580 
-0.775310 -0.793520 -1.284800 
-0.210150 -1.556200 -1.266600 
-0.694250 1.582100 -0.457110 
0.939270 0.448040 -1.596000 
1.113700 -0.538760 -0.771110 
0.113460 -1.651500 -0.933390 
-1.249500 0.643730 -0.655880 
1.133800 -0.472920 -0.688780 
-1.053500 -0.342230 -0.571690 
0.977310 0.477110 -0.746050 
1.190500 -0.019274 -0.334960 
-0.604220 -1.098800 -1.116700 
0.401490 -1.543300 -0.002986 
0.652720 1.489700 -0.973970 
-1.121500 0.890570 -1.282700 
0.963730 -0.939970 -0.526310 
0.586030 1.493400 -1.338400 
1.187000 -0.020471 -0.809040 
1.063100 -0.711740 -0.690980 
-0.210840 -1.600200 -0.651460 
1.168200 -0.173740 -1.079000 
0.947810 0.535320 -1.032600 
1.189800 -0.151290 -0.329630 
-0.258770 -1.578000 -0.310170 
-0.535870 -1.223400 -1.086100 
1.105800 -0.604150 -0.006566 
1.036600 -0.702540 -0.978060 
0.849090 1.207200 -0.630040 
1.167200 -0.324380 -0.531900 
-0.802990 1.516400 -0.430840 
-0.886470 -0.626990 -1.134200 
0.232720 -1.642500 -0.683580 
-1.064000 -0.315320 -0.170260 
1.129900 -0.515990 -0.460680 
1.023800 -0.826620 -0.532830 
-1.214300 0.389460 -1.153700 
-1.084500 -0.200880 -0.868560 
-1.270700 0.500600 -0.224680 
-1.056800 -0.305280 -0.842830 
0.478160 1.622200 -0.225740 
0.844820 1.138700 -1.206700 
1.150400 -0.423250 -0.282770 
-0.447080 -1.303100 -1.613100 
-0.331110 -1.520600 -0.884310 
-0.708630 -0.943750 -0.910080 
-1.014700 1.128900 -1.298500 
1.031700 -0.825070 -0.271040 
-1.134800 1.020300 -0.256870 
0.939290 -0.926970 -0.800600 
1.024700 -0.762810 -0.862700 
0.890430 -1.050100 -0.528600 
-0.383520 -1.479800 -0.250160 
0.933020 0.665690 -0.487430 
-1.094300 -0.234990 -0.192260 
1.095300 -0.645200 -0.464580 
-0.832790 1.445100 -0.879550 
-0.500260 -1.305500 -0.887260 
0.109990 -1.614500 -1.268600 
-1.010000 1.201000 -1.086300 
0.024914 1.687500 -0.969110 
0.174730 -1.637300 -0.997220 
-1.167700 -0.002313 -0.361870 
-0.494250 -1.327800 -0.411600 
1.058700 -0.760280 -0.213780 
0.579040 1.568100 -0.470060 
-0.502090 -1.291400 -1.018900 
-1.256300 0.341890 -0.049540 
1.104600 -0.616240 -0.115470 
-1.024200 1.209300 -0.940540 
-0.110020 1.741800 -0.425220 
0.767620 -1.214800 0.058412 
0.942670 0.606180 -0.666580 
1.138400 -0.478590 -0.177830 
-0.523710 -1.274700 -0.682260 
-0.568220 -1.199500 -0.518590 
0.824340 1.273800 -0.681330 
0.888910 1.013100 -0.799750 
-0.675690 -1.006100 -0.324230 
0.918920 0.741370 -0.840700 
0.777340 1.334100 -1.062100 
0.940400 0.606550 -0.779470 
1.160300 -0.370800 -0.390920 
1.160000 -0.296860 -0.897380 
-0.018886 -1.655900 -0.685070 
-0.987230 -0.487100 -0.314270 
0.047345 -1.606100 -1.341900 
0.329050 1.678300 -0.662000 
-1.046200 -0.361770 -0.256490 
0.894060 1.003300 -0.563650 
-1.111800 -0.178780 -0.462140 
-0.598790 -1.085300 -1.307400 
0.647500 1.483600 -1.076100 
-1.246300 0.334630 -0.716150 
-0.974920 -0.509960 -0.659920 
0.435940 1.616500 -0.950360 
0.398630 -1.465800 -1.049400 
0.672360 -1.312600 -0.303630 
0.466700 -1.448600 -0.855230 
0.640440 1.523700 -0.409000 
1.123800 -0.537720 -0.076552 
0.704940 -1.247700 -0.656010 
-0.494690 -1.320300 -0.286850 
-0.382400 -1.454000 -1.128500 
-1.185900 0.057475 -0.078459 
0.602470 1.547800 -0.230380 
0.148610 1.730100 -0.486530 
0.926110 0.518350 -1.464100 
0.955160 0.535120 -0.298990 
-0.460010 -1.381300 -0.733460 
0.520520 -1.449700 -0.242390 
0.019560 1.710400 -0.828940 
-1.148300 0.030763 -0.833050 
0.957480 0.460660 -1.291200 
0.967950 -0.942480 -0.418800 
-0.310180 1.716200 -0.406060 
1.127000 -0.296810 -1.292800 
0.112640 -1.635800 -1.098300 
-0.511320 1.656700 -0.500500 
1.058200 0.211400 -1.652600 
-0.853640 -0.689010 -1.078800 
1.059500 -0.745500 0.070608 
-1.261800 0.561130 -0.001617 
1.140800 -0.454790 -0.036352 
-0.678520 -1.010800 -0.593240 
-0.888880 -0.644610 -0.935180 
1.100400 0.152890 -1.505800 
0.852990 1.197200 -0.489470 
0.524670 -1.443400 -0.381220 
0.386730 -1.549700 0.161130 
0.862070 0.913330 -1.560000 
1.180000 -0.245040 -0.461690 
-0.212680 -1.582500 -0.977550 
-0.098766 1.685600 -0.912090 
1.188600 -0.010811 -0.712760 
0.515590 -1.414000 -0.789110 
1.079700 -0.595300 -0.977040 
0.204610 1.667000 -1.052600 
1.102600 -0.595010 -0.681790 
0.266940 1.691200 -0.736490 
-1.189600 0.632630 -1.334800 
1.116600 -0.422460 -1.113200 
0.892760 0.945580 -0.967290 
-1.137500 -0.031728 -0.756760 
0.855870 1.067400 -1.293100 
-0.710120 -0.918210 -1.144000 
-0.560510 -1.140400 -1.392300 
-0.419240 -1.441400 -0.671140 
1.190200 -0.048334 -0.172200 
0.684350 1.418300 -1.323900 
0.915270 -0.987110 -0.698280 
0.763840 1.315700 -1.327000 
1.065300 0.285410 -1.051700 
-0.571060 1.641800 -0.385080 
0.275300 -1.631400 -0.346970 
-0.016677 -1.615300 -1.223600 
1.128600 0.202770 -0.482890 
0.929030 0.600540 -1.106300 
0.999100 0.407930 -0.991820 
-0.629510 -1.022600 -1.387600 
0.524340 -1.427800 -0.635130 
0.855870 -1.109900 -0.357390 
1.090600 -0.537210 -1.051500 
-0.535250 -1.237600 -0.950370 
0.622350 -1.361000 -0.215810 
0.875200 1.081400 -0.858790 
-1.108600 0.883970 -1.377900 
-0.212650 -1.589400 -0.876010 
0.819490 1.195700 -1.315300 
0.664190 -1.300800 -0.586010 
0.672390 -1.314700 -0.158120 
0.670460 -1.315100 -0.004761 
0.573130 -1.403500 -0.307590 
0.475860 -1.461800 -0.719980 
0.445290 -1.506300 0.110970 
0.431120 -1.506900 -0.656280 
0.472830 -1.488200 -0.319990 
0.330300 -1.596500 -0.435570 
0.048444 -1.628800 -1.163400 
-0.426120 -1.393600 -1.202100 
-0.427840 -1.406600 -1.056500 
-0.466360 -1.358300 -0.952880 
-0.475660 -1.360100 -0.494490 
-0.142790 -1.546400 -1.530000 
-0.629790 -1.085500 -0.768560 
-0.805360 -0.734190 -1.355700 
-0.816880 -0.781910 -0.400950 
-0.934760 -0.585340 -0.607140 
-1.013500 -0.414800 -0.870940 
-1.061400 -0.206250 -1.084800 
-0.741500 -0.894490 -0.847450 
-1.006500 -0.446870 -0.233370 
-1.164300 0.031573 -0.664880 
-1.217500 0.220540 -0.737430 
-1.237700 0.272860 -0.632180 
-1.215600 0.708020 -0.979530 
-1.254700 0.641630 -0.474470 
-1.215700 0.774920 -0.674740 
-1.131500 1.027900 -0.445210 
-1.135400 1.011700 -0.100040 
-0.983650 1.331700 -0.413600 
-1.222900 0.771020 -0.423400 
-0.938260 1.376600 -0.654910 
-0.942900 1.388100 -0.213870 
-0.799920 1.521600 -0.336760 
-0.177780 1.717100 -0.660130 
-0.150600 1.740700 -0.038935 
0.549880 1.578600 -0.152920 
-0.563880 1.610300 -0.720190 
0.286840 1.698300 -0.171790 
0.852760 -1.106800 -0.458890 
0.740940 1.421900 -0.355250 
0.791810 1.338000 -0.763290 
0.833910 1.124000 -1.408400 
0.838190 1.041500 -1.592900 
0.902070 0.939330 -0.625220 
0.899420 0.728880 -1.303400 
0.931110 0.522390 -1.377700 
0.998490 0.427340 -0.346230 
1.102300 0.228630 -0.976370 
1.159300 0.103670 -0.961840 
1.128100 0.026997 -1.557300 
1.164300 0.027663 -1.165000 
0.966630 0.467490 -1.100200 
-1.265100 0.566630 -0.144780 
1.129700 -0.424260 -0.959980 
0.756280 -1.204000 -0.589760 
0.713970 -1.257200 -0.527120 
0.721360 -1.266000 -0.058527 
