0.365400 0.439390 -0.784710 
-0.561190 1.008700 -0.840850 
0.478340 1.192500 -1.110000 
0.708130 -0.845330 0.053237 
0.288830 1.390100 -0.169120 
0.391850 -0.931660 -0.639490 
0.848190 -0.374980 -0.038589 
-0.961260 1.220800 0.026456 
0.484500 1.276300 -0.533980 
-0.684190 0.522710 -1.093000 
0.040093 -1.224400 -1.165800 
0.594330 -0.694100 -0.914570 
-0.336160 -1.351700 -0.224310 
0.663050 0.236070 -0.388410 
0.466050 1.188800 -1.234000 
0.121950 -1.406100 -0.632150 
-0.852190 1.297700 0.020422 
0.599350 -0.728720 -0.246730 
0.003129 -1.278500 -1.590400 
0.706050 0.041076 -1.112200 
0.305700 0.862670 -0.747880 
0.615420 -0.205100 -0.429810 
-0.094885 -1.105100 -1.567400 
-0.687230 -0.737280 -0.291600 
-0.580560 0.852190 -0.980780 
0.343950 0.918160 -1.437800 
0.576820 -0.781540 -0.367240 
-1.254000 0.335860 0.001576 
-1.189100 0.186320 0.011241 
0.255900 -1.063100 -0.783570 
-0.623370 1.002700 -1.116500 
0.336330 0.849100 -1.449500 
-0.757670 -0.070566 -0.176140 
0.185090 -1.401000 -0.671040 
-0.269830 -0.494740 -0.948410 
-0.632830 1.579100 0.073014 
-0.727300 0.213670 -0.649400 
-0.555360 0.874010 -0.519070 
-0.589830 0.808910 -1.163400 
0.509570 0.992730 -0.346470 
-0.189080 -1.530800 -0.135560 
-0.053526 -0.936780 -0.885640 
-0.679310 -0.080325 -0.298240 
-0.703830 1.405800 0.045680 
0.744750 -0.073076 -1.171800 
-0.173580 -0.942100 -0.537730 
-0.985170 -0.238630 -0.081951 
-0.152490 -0.680600 -0.866230 
-0.013932 1.332500 -0.343560 
0.387270 0.289600 -0.911420 
-0.563380 -0.460760 -0.373790 
0.620300 0.828390 -0.303120 
0.714880 -0.385860 -1.344300 
-0.173660 1.552300 0.051643 
0.048518 1.236500 -0.986180 
-0.669900 -0.334430 -0.296040 
0.530250 -0.532230 -0.687860 
-0.902240 0.276680 -1.037200 
-0.655450 -0.019327 -0.858110 
0.803990 0.077699 -0.334270 
-0.296510 -0.898670 -0.435780 
0.173770 -1.107400 -0.110510 
-0.429670 -0.377900 -0.612280 
-0.740340 0.245540 -0.758350 
0.335290 1.195100 -0.463640 
-0.131820 1.209700 -0.394410 
-0.986560 1.158200 0.026734 
0.618420 0.210930 -0.444500 
0.292740 1.144700 -0.628080 
-1.121600 0.479050 -0.003902 
0.611420 1.283000 -0.282400 
-0.087512 1.347100 -0.649130 
1.124900 -0.521130 0.034782 
-0.712830 0.310510 -0.659880 
0.608090 -0.209360 -1.123900 
0.204600 1.319600 -0.293560 
-0.095377 1.424700 -0.021875 
0.475450 -1.041900 0.062017 
-0.083065 -1.638500 -0.114670 
-0.765530 0.511210 -0.984250 
0.299690 0.643310 -1.115400 
-0.804150 0.455980 -1.094100 
-0.755920 1.510900 0.053642 
0.652940 -0.293300 -1.374400 
0.606120 -0.420230 -0.328310 
0.609460 -0.732470 -0.689980 
0.461200 0.988610 -0.407000 
0.718280 -1.263500 0.143840 
0.397230 1.288300 -0.294600 
0.417860 0.223050 -0.908640 
0.543460 0.366560 -1.669600 
0.610260 -0.368340 -0.355570 
-0.239990 -1.280200 -0.315100 
-0.049055 1.387100 -0.651360 
0.591990 1.269200 -0.339260 
0.487810 1.236300 -0.716800 
0.355030 1.671200 -0.107380 
0.497940 1.318300 -0.336830 
0.553350 -0.950520 0.036052 
-0.734990 0.197720 -0.261800 
-0.313640 1.189200 -0.586160 
-0.100700 -1.045300 -1.165400 
-0.612410 -0.210980 -1.189800 
-0.472380 -1.245800 -0.288650 
0.513950 0.296580 -1.628100 
0.539220 -0.496850 -0.512040 
-0.646790 1.130200 -1.166100 
0.408960 -1.157900 0.105890 
-0.247650 -0.526050 -1.202800 
-0.613250 0.950640 -1.174000 
0.564380 -0.336040 -0.536510 
-0.160790 -1.223300 -1.404300 
0.760800 0.112690 -0.374240 
-0.935990 1.060300 0.020656 
0.574410 1.258700 -0.398160 
-0.695720 1.104800 -0.308540 
-0.615740 1.214000 -0.788790 
0.043515 1.384500 -0.232640 
0.672040 1.141800 -0.219660 
-0.130470 1.216800 -0.336940 
0.726290 -0.419920 -0.127280 
-0.128240 -0.841240 -0.668440 
-0.906360 0.520200 -0.208280 
0.465010 0.260730 -0.659220 
0.183390 -1.314900 -0.355220 
-0.706110 -0.590850 -0.274580 
-1.071300 1.051200 0.027769 
-0.809990 0.163830 -0.135270 
0.408150 0.951320 -1.701700 
0.178210 -1.349500 -1.074200 
0.726260 0.789160 -0.274800 
0.355590 1.227000 -1.309200 
0.449260 1.075700 -1.129500 
0.362830 1.215400 -0.536910 
0.626020 -0.769240 -0.627850 
-0.993880 1.017500 0.026994 
-0.450050 -0.281580 -0.746550 
0.459390 0.141760 -1.228200 
0.788240 1.341400 -0.195610 
-0.707440 1.209600 -0.342740 
0.293610 1.262700 -0.269970 
0.657480 1.019000 -0.243250 
-0.601500 1.009500 -0.341230 
-0.634290 1.206800 -0.730230 
0.178900 -1.080900 -0.733410 
-0.975070 0.813510 0.008157 
0.646720 -0.782230 -0.869630 
-0.197470 -1.184000 -0.712540 
0.861400 -0.793030 0.087183 
0.016988 1.366200 -0.460540 
0.565210 -0.242190 -0.677190 
0.493920 0.278180 -0.585660 
-0.560750 -0.858640 -0.329610 
0.325360 0.565880 -1.363400 
-0.008260 1.685200 0.023413 
0.219810 -1.361500 -1.030800 
0.941490 0.226450 -0.211740 
0.459830 0.356530 -1.596600 
-0.623600 0.642640 -0.873450 
0.379180 1.233600 -1.064200 
0.114900 -1.407900 -0.563160 
-0.455260 -0.311120 -1.423400 
-0.367690 1.256500 -0.102180 
0.384320 0.973880 -1.467600 
-0.247850 1.226600 -0.207730 
-1.186100 0.341150 0.003443 
0.259130 1.140500 -0.550110 
0.392450 1.037100 -1.226900 
0.043473 -1.199100 -1.328700 
0.661410 -0.594750 -1.073100 
0.158530 1.185100 -0.545400 
0.669270 -0.135840 -0.527870 
0.573440 -0.381350 -0.468680 
-0.523540 -0.299610 -1.481900 
0.782600 -0.067011 -0.317350 
-0.316270 -0.405830 -1.529500 
0.349570 1.266500 -0.278770 
0.107650 -1.137600 -0.592080 
-0.085685 1.240700 -0.411710 
-0.248300 -0.520170 -1.285800 
-0.573850 0.889490 -0.810790 
-0.716760 0.115120 -0.533550 
0.283790 0.792260 -0.971010 
-0.735170 0.359170 -0.506430 
-0.550780 1.002400 -0.764580 
0.592970 -0.929340 -0.686610 
0.755750 -0.022323 -1.348700 
-0.277290 -0.732630 -0.538280 
-0.548160 0.998760 -0.608430 
-0.622080 0.740370 -1.346300 
-0.060935 -1.215800 -0.396560 
0.509010 -0.860100 -0.462050 
0.435930 0.779040 -1.641000 
-0.667790 -0.183970 -1.222300 
0.099618 1.319300 -1.229100 
-1.062900 0.594980 -0.008917 
-0.380280 -0.974500 -0.368660 
0.616510 1.125600 -0.255560 
0.504630 0.088341 -1.128500 
-0.224700 1.485600 0.040119 
1.028700 -0.412490 0.026143 
0.754730 -0.082479 -0.394000 
0.962530 0.374800 -0.270200 
-1.221100 0.755360 0.012737 
0.473680 0.804340 -0.417390 
1.024700 -0.137990 -0.044020 
-0.827770 0.093582 -0.104650 
0.233820 1.121700 -0.656830 
-0.613570 -0.071862 -0.477720 
-0.796850 0.185700 -0.813040 
-0.728070 0.467510 -1.264400 
0.623060 -0.815850 -0.595200 
-0.155780 -0.783100 -0.667370 
-0.670360 -0.002142 -0.758820 
-0.587810 0.723870 -1.060900 
0.050453 -1.218100 -1.407900 
0.392880 0.926740 -0.509670 
0.604780 0.131000 -0.543060 
-0.246900 1.176100 -0.457130 
0.588740 -0.328460 -1.103000 
-0.697580 0.270020 -0.447300 
-0.831800 1.204300 -0.013098 
0.687210 -0.192700 -0.274040 
0.734240 -0.139340 -1.550100 
-0.073496 -0.786860 -1.000500 
-0.032570 1.345600 -0.487010 
0.087187 -1.159200 -0.374010 
-0.079122 -1.241800 -1.135200 
0.725820 0.022533 -1.407500 
-0.077636 -0.795610 -0.912450 
0.415130 -1.371500 0.178800 
-0.745220 0.801010 -0.137480 
0.306810 -1.168500 -1.111200 
0.232420 -0.960010 -0.422510 
0.281860 -1.224200 -1.052300 
0.238620 -1.562400 0.088047 
-0.936730 -0.521720 -0.207050 
0.398370 0.298210 -0.823550 
-0.700250 0.217630 -0.408520 
0.090254 -1.149900 -0.448690 
1.128500 -0.286160 -0.007064 
-0.158290 -1.199700 -0.863230 
-0.190910 1.238400 -0.213790 
-0.582830 0.900550 -0.889580 
0.898830 0.065209 -0.196160 
0.071800 -1.233500 -0.654890 
-0.536270 1.485100 0.074028 
-1.067800 0.215070 0.000653 
-0.419440 1.168500 -0.333540 
-0.705020 0.318390 -0.560470 
0.300350 0.791940 -0.790380 
-0.558530 1.053000 -0.697650 
-0.623550 1.151800 -0.672840 
-0.903270 0.355270 -1.222900 
0.722850 -0.132180 -1.431700 
-0.104560 -1.004000 -0.780610 
-0.302100 1.184100 -0.287940 
0.563260 -0.575750 -0.884570 
-1.134600 1.003400 0.025318 
-0.204520 -0.579490 -1.373800 
-0.621030 -0.515880 -0.318730 
-0.822190 0.030027 -0.104990 
0.453150 1.530700 -0.142880 
-0.039287 -1.384800 -0.207210 
0.553960 -0.664690 -0.780220 
0.972690 -0.862970 0.092044 
0.415350 0.862150 -0.476630 
-0.076111 -0.769490 -1.301700 
-0.767150 0.745800 -0.141200 
-0.562060 0.880400 -0.729240 
-0.935010 1.388500 0.019379 
-0.737710 0.138550 -0.241840 
-0.377470 -0.750920 -0.438160 
1.130900 0.187180 -0.180500 
-0.423600 -0.717750 -0.413990 
-0.545830 0.999230 -0.686620 
-0.199780 1.379200 -0.824210 
-0.202630 -1.089600 -0.619270 
-0.840730 0.514230 -0.536960 
0.342570 0.420790 -1.254800 
0.397510 1.191100 -1.628400 
-0.847610 0.055985 -0.848770 
0.279570 -1.333000 0.129750 
-0.025568 -0.927720 -1.183100 
0.647350 1.475800 -0.169820 
-0.385160 -0.348120 -1.231300 
0.826580 -0.701060 0.054456 
-0.167500 -1.034700 -0.601080 
-0.531380 -0.146070 -0.693200 
-0.146110 1.224600 -0.561520 
-0.695980 -0.099418 -1.104500 
0.579410 -0.426950 -0.400860 
-0.576180 1.172600 -0.860760 
0.648350 -0.577560 -0.150880 
0.582970 -0.852370 -0.546240 
0.323920 -0.888980 -0.341510 
-0.077479 -0.766730 -1.387300 
-0.761080 -0.006045 -0.172490 
0.656620 -0.144920 -0.951300 
-0.792230 0.373550 -0.756220 
1.106100 -0.597570 0.048120 
-0.222750 -0.674800 -0.668570 
0.087094 -1.305400 -1.002400 
0.107210 -1.093600 -0.403810 
0.714350 -0.779690 0.024572 
-0.560130 1.348700 0.020140 
-0.244700 1.601900 0.072538 
-0.154990 1.390200 -0.782800 
0.616760 0.275090 -0.425050 
0.331220 0.493180 -1.309600 
0.853220 -0.946640 0.108560 
-0.629240 0.639150 -0.796650 
0.454710 1.073300 -0.649290 
-0.714470 1.116600 -0.243520 
0.291570 0.864890 -0.834640 
0.226080 -1.086600 -0.839180 
-0.430330 -0.878680 -0.374960 
0.823220 -0.088367 -0.185640 
0.646820 -0.153110 -1.066900 
-0.579450 -0.083568 -0.591110 
-0.587580 0.715760 -0.989610 
0.621240 1.359200 -0.205530 
-0.195930 -1.199800 -0.643390 
-0.150150 -1.160100 -1.403000 
0.546100 -0.448730 -0.548590 
0.753690 0.009150 -1.630300 
-0.729430 0.468980 -1.204300 
-0.191720 -0.888380 -0.534190 
-0.481070 -0.237210 -0.725700 
-0.624480 1.240700 -1.140000 
0.666540 -0.174250 -1.368200 
0.424270 0.798530 -0.479080 
-0.553350 0.874820 -0.645630 
0.451530 1.284100 -0.449970 
-0.243730 -0.533230 -1.119700 
0.246710 -1.342600 -0.944890 
0.406460 1.587600 -0.125570 
-0.365000 1.160700 -0.405720 
0.447230 1.072800 -1.302600 
-0.371420 1.205100 -0.613050 
-0.642980 -0.039098 -0.431400 
-0.608760 0.887840 -1.222000 
0.566420 -0.293570 -0.917750 
0.648690 1.076600 -0.235820 
0.372200 1.231400 -1.144600 
0.785950 0.502970 -0.310210 
0.482600 1.132300 -1.121500 
-0.504400 -0.264940 -1.246300 
-0.616410 1.263400 -0.393760 
0.871730 -0.651230 0.054555 
0.221570 -1.253600 -1.357900 
0.784520 -0.615860 0.005433 
-0.631970 -0.099128 -0.392180 
0.356070 -1.417900 0.171960 
-0.874310 0.371050 -0.180660 
0.280040 -0.922210 -0.421370 
-0.970710 -0.031756 -0.019328 
-0.994640 0.883640 0.021162 
0.722210 0.319060 -0.337260 
0.203430 -0.999220 -0.521900 
0.329960 1.004300 -1.101500 
-0.140910 -1.168500 -1.621500 
-1.077100 0.282680 -0.005911 
0.038131 1.393900 -0.782850 
-0.676570 0.970150 -0.159910 
-0.616580 1.300700 -0.697220 
0.436150 -1.007400 0.020777 
-0.255740 -0.864940 -0.481670 
-0.121970 1.299700 -0.652240 
0.006021 1.343500 -0.981870 
0.213370 -1.287600 -1.463600 
0.711900 -0.102080 -0.926020 
-0.605970 1.158300 -0.735080 
0.142370 -1.464100 -0.016581 
0.643410 -0.363260 -0.282490 
0.553130 0.373600 -0.462430 
0.570510 -0.907970 -0.632460 
-0.079834 1.326600 -0.597310 
0.259610 -1.229500 -1.000400 
0.592100 -0.695190 -0.503380 
0.615880 -0.924950 0.049310 
0.545360 -0.597010 -0.473930 
0.539210 1.184200 -0.592530 
-0.638120 1.015300 -1.179300 
0.209170 -1.287600 -0.669310 
0.691450 1.208900 -0.208680 
0.110360 -1.575100 -0.046602 
0.022150 1.363800 -0.403100 
-0.054026 1.289100 -0.404380 
-0.617350 1.288000 -0.615350 
-0.176360 -1.063000 -0.722650 
0.745090 -0.045737 -0.857680 
0.390050 1.529300 -0.130820 
0.594100 -0.680260 -0.357180 
0.089782 -1.462800 -0.269000 
0.594860 -0.734450 -0.390660 
0.218240 1.350200 -0.242490 
0.293410 0.716510 -1.165200 
0.306760 -1.155000 0.059492 
0.745270 0.161610 -0.345910 
-0.044442 -1.195300 -0.471760 
-0.245940 -0.516970 -1.369600 
-0.808420 0.016372 -0.862050 
-0.535720 -0.177370 -0.589000 
-0.056911 -0.998760 -1.064200 
-0.651370 1.247500 -0.602080 
0.329370 1.228400 -0.331120 
-0.716490 0.089680 -0.284130 
0.730870 0.978030 -0.235450 
0.175310 1.197800 -0.479720 
0.058788 1.630100 0.005638 
0.071880 -1.513700 -0.151080 
0.447780 1.073900 -0.963480 
0.102950 -1.189200 -1.308500 
0.447650 -0.864810 -0.160230 
-0.753080 0.497000 -1.049400 
0.334910 0.503650 -0.874010 
0.547960 1.107800 -0.333690 
-0.082123 -1.258800 -1.217500 
-0.895140 1.341900 0.030617 
0.409040 0.905320 -1.571400 
0.758850 -0.805750 0.061164 
-0.533410 -0.157760 -0.885670 
-0.361870 1.172900 -0.292430 
0.884000 -0.730070 0.076904 
0.930630 -0.256120 -0.033981 
-0.592270 1.280900 -1.083800 
-0.066701 -1.285900 -1.385200 
0.011046 1.376300 -0.546000 
1.034700 -0.019788 -0.081255 
-0.194970 -0.631770 -0.824810 
0.506250 1.186900 -0.802360 
-0.575890 0.767150 -0.836430 
0.988040 0.327930 -0.250530 
0.345760 0.565510 -1.465400 
1.145700 -0.149030 -0.041673 
0.316650 1.160400 -0.773340 
0.562000 0.061001 -0.992510 
-0.065209 1.653600 0.039802 
-0.602560 0.815460 -1.228500 
0.545220 -0.650500 -0.722350 
0.472090 0.718870 -1.685400 
0.240310 1.293600 -1.469900 
0.513760 1.097600 -0.396560 
-0.590970 0.703860 -0.877240 
0.325310 -0.895280 -0.282910 
-0.686860 1.144000 -0.456310 
0.469700 -0.957400 -0.002547 
-0.683010 0.653870 -0.381440 
0.442230 1.038000 -0.485210 
-0.689470 1.280200 -0.142060 
0.730630 1.164300 -0.200810 
0.311760 0.932310 -1.295800 
0.620290 -0.396230 -1.165300 
-0.150170 -1.286300 -0.279140 
-0.200920 -0.597330 -1.079800 
-1.266000 0.489580 -0.003238 
0.535330 0.431300 -0.463900 
0.622620 -0.289410 -1.275800 
0.572880 0.252170 -0.482440 
-0.415890 -0.316560 -0.799810 
-0.143540 -1.225800 -1.537800 
-0.328770 -0.409210 -1.155000 
0.807690 0.684020 -0.284300 
0.338310 0.426160 -1.009500 
0.458160 0.539640 -0.522280 
0.258860 -1.303200 -1.408800 
0.686330 0.656450 -0.314560 
0.711360 1.095200 -0.213860 
-0.638690 1.407400 0.048489 
0.772700 1.119000 -0.206410 
0.296940 0.942170 -1.106500 
0.073016 -1.240500 -0.772750 
-0.138810 -1.247200 -1.224800 
-0.020151 -1.235600 -1.171100 
0.777290 0.062842 -0.404600 
0.183420 -1.000700 -0.393920 
-0.700150 0.062874 -0.535220 
-0.941730 0.113900 -0.028894 
0.553190 0.439670 -1.705300 
-0.646360 -0.697930 -0.299970 
0.488300 1.088600 -0.464950 
0.429600 -0.897160 -0.600040 
-0.112370 1.276600 -0.602880 
-0.584610 1.046700 -0.554340 
-0.607940 0.757010 -0.410760 
-0.996500 0.472850 -0.076267 
0.285660 0.790470 -1.114100 
-0.931050 -0.359890 -0.149610 
-0.359820 1.545300 0.078974 
0.080606 -1.312000 -0.845550 
-0.290400 -0.461500 -1.240900 
0.228930 1.710800 -0.066750 
1.105200 0.235270 -0.205660 
0.561080 -0.516310 -0.868100 
0.680090 0.032379 -1.509700 
0.051177 1.339900 -0.815240 
0.498150 1.189500 -0.875920 
-0.727190 0.857540 -0.133590 
0.979620 -0.473400 0.034730 
-0.376320 1.316100 -0.032961 
0.802140 -0.493870 -0.028807 
0.676470 -0.698000 -0.060502 
0.344550 0.430080 -0.916540 
-0.557130 1.000200 -0.530940 
0.594030 -0.730790 -0.333840 
-0.029227 -1.191800 -0.903890 
0.314220 1.306500 -0.224240 
0.350360 0.508920 -0.786640 
0.495490 0.483670 -0.492270 
0.453050 0.151840 -0.995980 
0.678020 -0.871470 -0.785700 
0.828410 -0.189370 -0.113950 
0.269160 -1.117400 0.004411 
-0.378480 -1.040900 -0.347590 
0.534910 -1.280000 0.165440 
-0.572160 1.360900 -0.777900 
0.491930 1.126500 -0.844550 
0.069034 1.274400 -0.788690 
0.539060 1.244500 -0.520370 
-0.201250 -1.230700 -0.507940 
0.074678 -1.367500 -0.615910 
0.414840 0.208920 -1.140200 
-0.715420 -0.043332 -0.239380 
0.774110 -0.097997 -0.253280 
-0.303350 1.202000 -0.232700 
0.706160 -0.304500 -0.198220 
0.344440 -0.920790 -0.164730 
0.121370 -1.133400 -0.659830 
0.210950 -1.353000 -0.601680 
0.547360 -0.873550 -0.035723 
0.652060 -0.146340 -0.610210 
0.321570 -0.985360 -0.088283 
-0.190640 -1.136400 -1.145900 
-0.164350 -1.153900 -1.317900 
0.364680 -1.116600 0.063700 
0.585740 0.448060 -0.413810 
0.687330 -0.585420 -0.092630 
0.624450 -0.225570 -1.270500 
0.596830 0.636800 -0.362180 
-0.086166 1.465700 -0.896300 
-0.674300 1.255700 -0.286250 
0.666100 0.960530 -0.254000 
-0.328140 1.379600 0.004704 
-0.970840 -0.457680 -0.180430 
-0.639820 0.896100 -0.235340 
-0.394800 1.414400 0.038676 
-0.556210 -0.691610 -0.337370 
-0.318410 -1.237000 -0.309700 
0.381130 0.281020 -1.049700 
-0.754470 0.586870 -0.636290 
0.644490 0.043653 -1.246500 
0.096840 -1.222100 -0.343860 
0.883540 -0.081160 -0.128580 
0.595500 0.373050 -1.689400 
-0.713940 1.218400 -0.283100 
-0.155550 -1.228100 -1.627100 
0.572540 -0.469900 -0.911920 
-0.572800 -0.111900 -0.916550 
-0.760400 0.300360 -0.265010 
0.674440 0.715390 -0.305580 
-0.378730 1.636300 0.087360 
-0.714500 0.317470 -0.426390 
0.700610 0.048008 -0.989590 
0.612290 -0.736330 -0.881490 
0.237250 -1.172100 -0.980740 
-0.992140 0.096388 -0.007175 
0.553300 -0.350060 -0.615490 
0.557660 -0.393330 -0.545120 
-0.081786 -1.048600 -1.250900 
-0.119640 -0.965600 -0.651550 
0.033455 -1.202200 -0.858020 
0.029872 -1.188600 -0.579430 
0.434410 0.238940 -0.779280 
-0.055633 1.415300 -0.732970 
0.486410 0.742770 -0.421310 
0.791130 0.394270 -0.308890 
-0.141390 1.738400 0.049984 
0.157320 -1.079600 -0.674490 
0.541510 0.751720 -0.369830 
0.025868 1.398900 -0.839790 
-0.931640 1.282700 0.027519 
0.420030 1.260500 -0.539390 
0.382170 -1.042800 0.019159 
0.646550 0.096453 -0.586940 
0.434900 0.840470 -1.628700 
-0.666140 0.010383 -0.448430 
0.106690 -1.200400 -0.528710 
-0.705150 0.031743 -0.288970 
0.595310 0.237670 -1.684600 
0.371940 0.710670 -1.561900 
0.058152 1.372100 -0.608260 
0.198780 -1.136900 -0.042204 
1.031500 -0.815200 0.079585 
-0.548530 1.302400 -0.019805 
-0.208740 1.382800 -0.024102 
0.413150 0.212920 -1.045700 
0.646260 -0.744530 -0.073324 
0.752330 -1.032100 0.115570 
-0.656720 -0.792000 -0.303270 
0.236510 -1.327200 -1.137800 
-0.705300 0.100060 -0.337840 
0.298570 1.182600 -0.419140 
-0.834660 0.404580 -0.796000 
0.345790 1.230600 -1.393500 
0.115790 1.654800 -0.013482 
0.170420 -1.406200 -0.533200 
0.439440 0.900050 -1.663800 
0.465610 0.608300 -0.488800 
0.334380 1.196400 -1.034400 
0.847520 0.203410 -0.250990 
0.466710 0.140660 -1.322600 
0.548890 -0.407460 -0.621390 
0.857710 1.160700 -0.214480 
0.548240 0.877170 -0.334550 
-0.690530 1.198200 -0.462180 
0.575220 -0.227340 -0.594470 
0.602080 0.946700 -0.284080 
0.202830 1.149900 -0.543550 
0.980390 0.133660 -0.161570 
0.786820 -0.105880 -1.579300 
-0.685620 0.908380 -0.163020 
0.847300 0.632280 -0.290530 
0.130080 -1.406100 -0.702470 
0.739710 0.917820 -0.246690 
-0.817000 1.073100 -0.022276 
0.186620 -1.039800 -0.626030 
-0.727990 1.242700 -0.164420 
0.545010 -0.539580 -0.440980 
0.428140 0.206230 -1.332600 
-1.122900 0.413640 -0.004544 
0.358630 -0.903430 -0.553920 
0.151260 -1.432500 -0.332440 
-0.604480 -0.347620 -0.361930 
0.646200 -0.791950 -0.720700 
0.578680 -0.896730 0.010102 
0.966660 -0.944110 0.094246 
0.753230 1.048000 -0.219070 
-0.021804 1.434800 -0.851120 
0.475360 1.345600 -0.258270 
-1.082500 1.133500 0.021726 
0.792280 0.183200 -0.292940 
0.704120 -0.119690 -0.406140 
0.885890 0.264380 -0.245250 
1.063100 0.089467 -0.122380 
0.638010 0.052904 -1.075800 
0.576820 0.102540 -0.658120 
0.175440 1.646500 -0.036346 
0.766850 -0.087910 -1.455600 
0.996530 0.185500 -0.178510 
0.493160 0.221730 -1.572800 
-0.468770 1.345400 -0.744930 
0.775470 0.001906 -0.469390 
0.591890 -0.778660 -0.142080 
0.493790 -0.846530 -0.387630 
-1.042600 0.650080 -0.002925 
0.420460 1.644900 -0.124730 
0.329630 -1.492800 0.158640 
0.565900 0.174930 -0.543530 
-0.847700 0.196580 -0.937250 
-0.760080 -0.018735 -0.989360 
0.513880 -0.916520 -0.645790 
0.839110 1.223200 -0.207930 
0.318010 -1.294300 -1.336200 
0.237360 -1.234300 -0.947780 
-1.003100 -0.108620 -0.028185 
-0.415980 -0.338540 -0.721810 
0.464660 -0.878830 -0.105340 
-0.042461 -1.204400 -0.980270 
0.802390 -0.910070 0.101400 
0.559740 -0.455520 -0.842590 
0.713170 1.447400 -0.181950 
0.178020 -1.392000 -0.293060 
0.680780 -0.397410 -1.286800 
0.697630 -0.496880 -1.205400 
0.357120 0.656210 -0.664670 
-1.055600 -0.333450 -0.118190 
0.372540 0.515770 -0.703910 
0.902400 0.366470 -0.274720 
0.199240 -1.583100 0.045133 
0.350250 -1.197800 0.106710 
-0.066730 -1.325700 -0.227180 
-0.187100 -1.004200 -0.520190 
0.144440 -1.265800 -1.174300 
0.556860 1.250500 -0.458490 
-0.023894 -1.651700 -0.100450 
0.598620 -0.387920 -1.099200 
-0.030390 -1.528200 -0.129690 
-0.163170 -0.642170 -1.378000 
-0.678890 -0.011931 -0.338540 
0.364520 1.229100 -1.226400 
0.389360 0.661510 -0.588020 
0.918180 0.473650 -0.293520 
-0.692370 1.073900 -0.204590 
-0.421480 1.223900 -0.134260 
-0.766000 1.106600 -0.079634 
0.065118 1.336200 -0.757920 
-0.168270 -0.706060 -0.743320 
0.419080 0.386940 -0.662290 
-0.881160 0.373940 -1.053100 
0.918220 -0.598880 0.052012 
0.294240 1.290700 -1.517100 
-0.177720 -1.193700 -1.145400 
-0.529800 1.226500 -0.149660 
-0.940690 0.574540 -0.105760 
0.745710 -0.481610 -0.078628 
0.333830 0.780080 -1.458100 
-0.675880 -0.050677 -0.999180 
-0.093796 -1.199200 -0.866660 
0.584850 0.045368 -1.390500 
0.288630 0.792260 -0.879140 
0.864540 -0.510560 0.011201 
-0.034729 1.389200 -0.074555 
-0.393430 -0.348210 -1.394200 
-0.628500 -0.215040 -1.265700 
0.623850 -0.881140 -0.654350 
0.494820 1.475700 -0.159350 
-0.876580 -0.405560 -0.182800 
0.792090 -0.045612 -1.608000 
-0.882270 0.180510 -0.981460 
-0.706170 0.114450 -0.477660 
0.198970 1.232400 -1.309800 
0.160380 -1.363800 -0.177890 
-0.783120 0.379570 -0.688490 
-0.712430 -0.063803 -1.062500 
0.621330 0.338690 -0.407720 
0.512100 0.933360 -0.350710 
0.019719 1.340000 -0.926740 
-0.660510 -0.062309 -0.349110 
0.058766 1.328800 -1.170300 
1.117100 -0.358870 0.009341 
-1.261800 0.561130 -0.001617 
-0.508720 -0.313940 -0.518110 
-0.255010 1.287400 -0.105980 
0.281380 -1.532500 0.127580 
0.962000 -0.326720 -0.003833 
-0.025575 -0.983750 -1.502900 
0.159850 1.194800 -1.185800 
-0.520390 1.425800 0.057869 
-0.020194 -1.174300 -0.669610 
0.560000 0.303010 -1.661100 
0.554480 -1.414500 0.176200 
0.785720 -0.366820 -0.088154 
0.234860 -0.982540 -0.230290 
-0.073877 -1.272600 -1.300600 
0.640240 -0.253290 -0.325990 
-0.925450 0.314900 -1.118000 
-0.166880 -1.261000 -0.396770 
0.108110 -1.110700 -0.292020 
0.658000 -0.957540 0.080575 
0.391440 0.275390 -1.292000 
0.734350 0.026093 -0.669280 
0.571880 0.049126 -1.255500 
-0.094682 1.371300 -0.699670 
0.497020 0.360980 -1.637800 
0.416390 0.278020 -1.441200 
0.326550 1.001700 -0.923480 
0.294820 0.786410 -1.260500 
0.418810 0.528990 -0.590070 
-0.677920 1.096400 -0.374150 
0.597160 -0.590430 -0.972020 
0.500190 0.680760 -0.426340 
0.018004 -1.197900 -0.499640 
-0.132500 -1.164900 -1.533400 
0.490570 0.869210 -0.384630 
0.197060 -1.654700 0.012307 
0.572730 -0.275970 -0.524460 
0.444170 0.208790 -1.430100 
0.666980 0.297750 -0.376470 
-0.795440 0.220430 -0.864990 
-0.690240 -0.144980 -1.168800 
-0.736040 0.477420 -1.143400 
-0.569840 1.240700 -0.272000 
0.668280 -0.819830 0.013870 
0.173940 -1.178600 -0.856610 
-0.021689 1.394800 -0.988270 
-0.091498 1.243400 -0.468520 
0.395900 -0.870760 -0.488730 
0.293900 0.943000 -1.013900 
0.538430 -0.470340 -0.658630 
-0.588190 -0.257080 -0.408150 
0.995150 0.428880 -0.285520 
0.834280 0.946490 -0.237340 
0.447000 1.070700 -0.803940 
0.463000 0.647910 -1.690900 
0.619430 -0.176710 -0.854140 
-0.294220 1.530300 0.067616 
0.058070 -1.309300 -0.506700 
0.733180 0.016834 -0.786380 
-0.740210 0.575200 -0.787820 
0.312940 0.572240 -0.968250 
0.841590 -1.020400 0.113280 
0.561670 -0.837210 -0.475870 
0.160050 -1.215300 -1.280700 
-0.740860 1.350400 0.012848 
-0.679260 1.080600 -1.293900 
-0.196510 -1.084000 -0.927440 
0.393720 0.375500 -0.741410 
-0.071455 1.448300 -0.830630 
0.120900 1.174400 -1.061300 
0.309540 0.569200 -1.112600 
-0.175620 -1.204100 -1.231100 
0.655780 -0.170870 -1.293900 
-0.575750 0.776070 -0.914490 
-0.040810 -0.835780 -1.393700 
0.205870 1.463300 -0.142600 
0.409650 0.350500 -1.500700 
-0.216070 -1.126200 -0.702030 
0.381940 0.844780 -1.540900 
0.842380 0.883520 -0.248320 
0.901900 0.901850 -0.250210 
0.586860 -0.628240 -0.318350 
1.039400 -0.341290 0.010771 
-0.610050 0.651700 -1.054000 
-0.033543 -1.589000 -0.105370 
-0.637420 0.636110 -0.675900 
0.617190 -0.169510 -0.540570 
-0.720280 1.229400 -0.223590 
-0.631300 1.281900 -0.167880 
-0.915070 0.856440 -0.005948 
-1.081000 -0.265780 -0.085318 
0.034942 -1.660700 -0.082431 
-0.054423 1.439400 -0.964500 
-0.743900 1.189100 -0.177470 
-0.901500 0.314510 -0.099795 
-0.851370 0.463050 -0.442940 
0.793830 -0.555010 -0.011390 
0.857160 -0.249840 -0.072258 
-0.519780 1.305300 -0.617810 
0.158230 -1.421400 -0.192290 
0.198370 -1.293000 -0.531430 
-0.140750 -1.039700 -0.914410 
-0.266820 1.370400 -0.018277 
-0.041585 -0.932950 -0.969600 
0.354470 0.990840 -0.669500 
0.753940 -0.021470 -0.623150 
-0.306490 -0.437510 -0.944930 
0.064740 1.524900 -0.027488 
0.375770 0.778720 -1.553400 
0.589280 -0.265690 -1.098900 
-0.343440 -0.868770 -0.420100 
0.024908 -1.211400 -0.935470 
0.150190 1.131400 -0.796440 
0.285540 0.865520 -1.110400 
-0.193790 1.671600 0.065782 
-0.026414 -0.994990 -1.322400 
-0.770510 0.196880 -0.761400 
1.048800 -0.271900 -0.005587 
0.302950 0.641860 -1.214100 
-0.019980 -1.475600 -0.170380 
-0.654070 0.587790 -0.973570 
0.219350 1.115000 -0.730930 
0.045629 1.739800 -0.002398 
0.397620 1.032700 -0.677550 
0.457340 1.131100 -1.423700 
-0.633680 -0.223600 -1.344900 
-0.574220 -0.165920 -0.483130 
0.061772 -1.252100 -0.967090 
0.234420 1.132100 -1.043000 
-0.728060 0.312520 -0.360350 
-0.911270 0.058232 -0.040229 
0.492670 -0.837180 -0.196660 
0.326830 1.172500 -0.702200 
0.676730 -0.175570 -1.442500 
0.383790 -0.877220 -0.215690 
-0.421150 1.297300 -0.727250 
-0.947070 0.178870 -0.035325 
0.674710 -0.894870 0.060359 
-0.080732 1.268800 -0.238670 
0.448870 1.184000 -1.362100 
0.703880 -0.110450 -1.042500 
-0.144730 -1.215100 -0.717350 
0.362640 -1.315200 0.157360 
0.453670 -0.919580 -0.655390 
-0.826330 0.171310 -0.858730 
0.349060 1.614300 -0.106480 
0.538080 -0.622060 -0.601240 
-0.852580 0.433850 -1.001200 
-0.272080 -0.530970 -0.782160 
0.357320 0.349470 -1.150600 
0.551220 -0.382770 -0.770850 
0.168690 -1.125300 -0.812150 
-0.188830 1.190400 -0.409840 
0.522520 -0.855870 -0.086582 
0.096110 -1.443300 -0.331440 
0.123530 -1.081800 -0.545440 
-0.222220 -1.260200 -0.376430 
0.084341 1.404400 -0.267460 
1.064200 0.189230 -0.173900 
0.521230 1.240400 -0.583950 
-0.017666 -1.241100 -0.349740 
-0.564640 -0.228490 -0.463580 
0.272610 1.226300 -0.322740 
-0.082417 -1.198700 -0.715810 
-0.506670 1.369400 0.032247 
0.750640 0.044292 -0.515830 
-0.203020 -1.094000 -0.848450 
-0.086246 -0.998600 -0.858980 
0.108900 -1.413000 -0.495270 
0.278940 1.159500 -1.120900 
-0.082117 -1.202200 -0.639670 
0.588720 -0.481800 -0.978160 
-0.814390 1.468600 0.042698 
0.143060 -1.260700 -0.386430 
0.976900 -0.196910 -0.036891 
0.337030 0.423530 -1.105900 
-0.642130 -1.062200 -0.327810 
0.819690 -0.308660 -0.078993 
0.866150 0.697950 -0.281610 
-0.844340 0.461970 -0.514370 
0.332370 0.930850 -0.665590 
-0.744420 0.347160 -0.711490 
-0.477420 -0.242480 -0.945170 
0.289090 1.151300 -1.041000 
0.092106 -1.664900 -0.058512 
-0.706670 0.266050 -0.383610 
0.439020 -0.930770 -0.050683 
0.553040 1.187300 -0.525750 
0.953940 -0.077433 -0.086197 
0.540860 -0.486000 -0.730430 
-0.788470 0.537590 -0.847610 
-0.693200 1.017000 -1.323800 
0.711040 -0.541550 -1.173000 
-0.593420 0.973800 -0.980710 
0.449010 1.314000 -0.307660 
-0.150970 -1.395400 -0.169770 
0.005351 1.391900 -0.630720 
0.502210 -0.909320 -0.028907 
-0.374990 -0.354800 -1.149700 
-0.047942 1.288800 -0.346380 
-0.791880 1.174900 -0.060965 
-0.509920 -0.200250 -0.919950 
0.661970 -1.038900 0.107490 
-0.675250 0.841990 -0.203500 
-0.701290 1.148700 -0.394010 
-0.455210 -0.507210 -0.465120 
0.743350 0.436530 -0.326580 
-0.918040 1.120000 0.020374 
0.063097 1.575800 -0.005038 
0.203560 1.283000 -1.379600 
0.960430 -0.022947 -0.106590 
0.185710 1.139500 -0.613650 
-0.657280 0.955600 -1.295900 
-0.072000 1.310200 -0.544020 
-0.084686 1.321400 -0.130840 
0.613310 -0.521960 -0.237490 
-0.694100 -0.025706 -0.953520 
-0.035204 1.325400 -0.174400 
-0.369870 -0.820270 -0.420810 
0.865910 -0.036930 -0.179360 
-0.161230 -0.655020 -1.123500 
0.156290 1.322300 -0.425940 
-0.842980 -0.247540 -0.142850 
0.419400 1.034600 -0.560010 
-0.765080 0.350730 -0.335510 
0.393990 0.730100 -0.549770 
-0.492440 -0.211200 -0.841070 
0.458990 0.928700 -0.408060 
-0.141240 -1.621400 -0.127160 
0.384880 1.039000 -0.965550 
-0.650150 1.090400 -0.472840 
-0.453450 1.681100 0.086419 
0.023987 1.346600 -1.114800 
0.587160 -0.790360 -0.446950 
-0.829260 -0.040846 -0.100820 
-0.698460 0.952020 -1.345400 
0.933980 -0.679890 0.072065 
-0.335520 -0.402160 -1.237100 
-1.175700 0.614980 0.012350 
0.431250 1.473500 -0.152780 
-0.571340 1.003000 -0.454330 
0.732830 -0.598170 -0.039856 
1.181900 0.031513 -0.108300 
-0.546240 0.939620 -0.668600 
0.850840 0.408250 -0.293530 
-0.244670 1.183800 -0.345340 
-0.744920 -0.892050 -0.308490 
0.307390 1.443300 -0.141880 
0.223230 -1.348300 -0.739160 
-0.157430 -0.863180 -0.597870 
-0.190600 1.189900 -0.466320 
0.623640 1.179400 -0.268080 
-0.901850 0.467110 -0.231990 
0.798060 0.743800 -0.274030 
0.149410 -1.074100 -0.218060 
0.559070 -0.289510 -0.605820 
-0.578940 1.637300 0.079233 
0.529810 -0.876540 -0.530650 
0.081377 -1.485800 -0.208610 
-0.897680 0.568450 -0.172350 
0.827120 -1.092300 0.117290 
0.313830 -1.262900 0.122300 
0.930530 -1.003300 0.100840 
0.610240 0.887870 -0.294560 
-0.524610 1.212200 -0.207470 
-0.699260 0.221270 -0.500030 
0.758960 -0.305020 -0.134510 
-0.424110 1.192700 -0.526500 
-0.101680 -1.100400 -1.436100 
0.815740 -0.015259 -0.303930 
-0.480670 1.239100 -0.096499 
-0.653100 1.314500 -0.056241 
0.589510 1.164600 -0.322680 
0.321590 0.575230 -0.876310 
0.652470 -0.155170 -0.417260 
0.561170 -0.259030 -0.759020 
0.515760 1.290000 -0.443990 
0.600820 -0.438460 -1.055700 
0.648810 -0.523480 -0.173440 
-0.410380 -1.447300 -0.225140 
0.317510 1.201200 -1.195700 
-0.804660 0.365720 -0.822700 
-0.740280 -0.188600 -0.210030 
0.449980 -0.990120 -0.738320 
0.730790 -0.362320 -0.147010 
0.710120 0.032729 -1.236900 
0.638610 -0.156660 -0.692470 
-0.667800 0.017328 -0.505240 
0.692030 -0.341820 -1.394200 
-0.680700 0.601750 -0.793780 
0.591870 -1.144300 0.129770 
0.667790 -1.214200 0.143670 
-0.602940 0.739960 -1.226000 
0.635310 -0.800200 -0.033404 
0.804720 0.023554 -0.357890 
-0.512580 1.254100 -0.490720 
0.645300 -0.831730 -0.664130 
-0.467310 1.197300 -0.410860 
-0.811820 0.079972 -0.791300 
0.153970 -1.182500 -0.799090 
0.500920 0.148230 -1.511200 
-0.164510 -0.649930 -1.207700 
-0.652150 1.020700 -1.241100 
-0.712380 0.061603 -0.590420 
-0.601410 -0.996600 -0.325860 
0.088602 1.333200 -0.640040 
-0.829630 -0.377690 -0.193000 
0.748820 -0.030664 -0.701070 
0.101530 1.169300 -0.824340 
-0.717600 -0.007199 -0.906760 
0.229950 1.264500 -0.300230 
-0.695110 0.607770 -0.637240 
0.152610 -1.245100 -0.530800 
0.106800 1.341100 -0.521150 
0.538770 -0.817450 -0.348350 
0.553140 -0.485630 -0.440530 
1.049300 0.140070 -0.147900 
0.597320 -0.709420 -0.586520 
0.012914 1.491300 -0.018602 
-0.770010 1.218800 -0.088982 
-0.986740 0.527710 -0.080239 
-1.128600 0.201190 0.010142 
0.065989 -1.552700 -0.100100 
-0.931970 0.469220 -0.165240 
-0.852120 0.391960 -1.264300 
0.596900 0.513010 -0.391100 
-0.418680 1.189100 -0.217740 
-0.680400 1.360800 0.015093 
0.701150 -0.119010 -1.158600 
0.472400 0.426180 -1.645300 
0.613310 0.702560 -0.335990 
-0.631060 1.052400 -0.377200 
0.453890 0.146470 -1.088000 
-0.337450 -0.399040 -1.401700 
-0.710050 -0.366650 -0.263230 
-0.599800 -0.047061 -0.793760 
-0.025881 1.337500 -0.430340 
0.250580 -1.304300 -1.205900 
-0.240020 -0.517260 -1.455300 
0.573360 -0.477020 -0.369330 
0.339880 0.994360 -0.752360 
-0.863500 0.238830 -0.975870 
-0.833650 0.503420 -0.827880 
0.401830 1.016000 -1.637900 
0.343960 -1.260900 -1.227500 
-0.204640 1.732200 0.062765 
-0.601200 0.939240 -1.108200 
0.162720 -1.523300 0.024411 
-0.665480 0.594200 -0.903750 
-0.909920 0.415970 -0.178320 
-0.487050 1.274400 -0.046432 
-0.826710 0.492060 -0.932880 
0.373080 0.639760 -1.565300 
0.745700 1.308000 -0.187280 
0.477250 1.131200 -1.205100 
-1.119900 0.667400 0.015730 
0.652680 -0.914040 -0.739770 
-0.849760 0.147820 -0.093491 
-0.078318 1.741800 0.034685 
0.340470 1.248900 -1.477600 
0.146410 -1.663300 -0.027070 
0.756930 -0.083573 -1.372400 
0.476020 -1.325700 0.175250 
-0.164410 1.274000 -0.684760 
0.371840 0.587590 -0.664980 
-0.655820 1.198800 -0.641280 
0.446670 1.071900 -0.882990 
0.732520 -0.096530 -0.472880 
0.489460 -1.140200 0.116440 
-0.790510 0.289620 -0.205530 
-0.237670 -1.189600 -0.505670 
0.632920 0.153400 -0.472350 
0.427000 1.253600 -0.728070 
0.609890 -0.786660 -0.086193 
-0.781900 0.095073 -0.723440 
-0.060785 1.294200 -0.461300 
-0.644420 0.583040 -1.041300 
0.542910 -1.100900 0.109170 
-0.201630 -1.155700 -0.857470 
0.395510 1.217500 -1.423800 
-0.414770 1.343400 -0.806760 
-0.119900 -0.702730 -1.470300 
-0.044087 1.370700 -0.597150 
0.780870 0.338080 -0.307460 
0.141510 -1.448500 -0.127390 
0.739260 -0.539850 -0.058663 
-0.798040 1.328700 0.014064 
-0.128850 -1.268400 -1.352200 
0.810720 -1.163500 0.123040 
0.321960 0.497160 -1.060600 
-0.075305 -0.773440 -1.216600 
0.101260 -1.427900 -0.395750 
0.635280 -0.866880 0.023217 
-0.139280 -1.551200 -0.123990 
0.475790 0.184060 -0.736750 
0.529850 0.297470 -0.518500 
-0.598730 1.330400 -0.826890 
0.400970 1.245900 -0.601810 
-0.821210 0.560620 -0.435940 
0.539700 -0.810260 -0.210410 
-0.477750 -0.613540 -0.401570 
0.275990 -1.170000 -1.047900 
0.629460 0.401750 -0.390530 
0.809920 -0.432280 -0.045529 
-0.785740 0.384890 -0.445560 
-0.153090 -1.248500 -0.466250 
0.428770 0.668140 -0.517680 
0.390770 -1.005200 -0.722660 
-0.440340 1.342300 0.004224 
-0.815580 -0.777170 -0.283980 
-0.469490 1.228300 -0.518460 
-0.549620 -0.195630 -1.038200 
0.737110 -0.077946 -0.650800 
0.232010 -1.053700 -0.735340 
-0.802310 0.552340 -0.702430 
0.536330 1.349400 -0.258160 
-0.668430 1.247300 -0.372390 
-0.640230 -0.012878 -0.578100 
0.668920 0.591830 -0.334790 
0.316920 1.172000 -0.527020 
0.180920 1.130800 -0.998750 
0.103530 -1.255300 -0.191300 
-0.665820 0.522650 -1.343500 
-0.592660 -0.411900 -0.359510 
-0.478630 -0.360090 -0.534530 
0.614110 -0.218300 -1.198000 
0.021303 -1.281500 -0.351720 
-0.452460 -0.304580 -0.671530 
-0.806010 0.556020 -0.627550 
0.266310 1.173800 -1.201300 
0.582830 -0.217400 -0.829280 
-0.693480 0.784530 -0.208600 
-0.541770 -1.005300 -0.331030 
-1.113400 0.130010 0.013741 
-0.884830 1.443700 0.025875 
-0.006930 -1.260900 -1.420000 
-0.602110 1.047100 -0.483210 
0.713220 0.084218 -0.517270 
-0.872380 0.202250 -0.086708 
0.230950 -1.172900 0.020833 
-0.330730 -0.783580 -0.461510 
-0.617190 -0.751780 -0.311100 
-0.646320 0.811540 -1.376100 
-0.086834 -1.209100 -0.563240 
1.040300 0.236040 -0.200860 
0.002106 -1.214900 -0.422500 
-0.115070 -0.718410 -1.083500 
0.540780 0.624610 -0.406010 
0.663010 0.775030 -0.296320 
-0.695510 0.720770 -0.251910 
0.491880 1.046100 -0.381950 
0.276820 -1.435400 0.140840 
-0.775490 0.178680 -0.182510 
0.290890 1.237000 -1.400900 
0.457620 -1.203700 0.138350 
-0.640290 -0.381150 -0.320440 
0.073424 1.379000 -0.377880 
0.859020 0.575570 -0.296030 
-0.836450 0.509350 -0.720080 
-0.579780 0.750340 -0.583100 
0.027361 -1.355600 -0.334490 
-0.233000 -0.576060 -0.824410 
-0.847560 0.415620 -0.344680 
-0.655920 1.244600 -0.544760 
0.035916 1.372500 -0.288650 
-0.339250 -0.411820 -0.815030 
0.244760 -1.638900 0.055699 
-0.195530 1.282000 -0.135930 
0.431670 0.570900 -1.654200 
0.309190 0.854930 -1.352500 
-0.165840 -1.193300 -0.939140 
0.176830 1.273100 -0.405670 
0.218770 -1.124200 -0.913730 
0.289680 1.610800 -0.085113 
-1.238100 0.692880 0.007351 
0.602060 -0.626250 -0.255250 
-0.858550 0.153600 -0.900230 
0.101750 1.277700 -0.666900 
0.356600 0.860100 -0.585130 
0.354280 0.984920 -1.377800 
0.584330 -0.524470 -0.304150 
0.187090 -1.377600 -0.361140 
0.401750 1.260300 -0.417140 
0.684260 0.841790 -0.275040 
0.610080 1.538800 -0.164120 
-0.255980 1.662300 0.075792 
0.447730 1.074400 -1.438000 
-0.202800 -1.144900 -0.934890 
0.125210 -1.190800 -0.669540 
-0.609380 1.095100 -0.603760 
0.389120 1.361600 -0.196800 
-1.140300 0.735400 0.021521 
0.681850 -0.248690 -0.252160 
-0.806810 0.820730 -0.075551 
-0.810120 0.558400 -0.551470 
0.420800 0.986960 -0.475550 
0.411420 1.135500 -1.603500 
0.330760 0.998220 -0.837120 
0.487460 1.131200 -0.999890 
-0.769030 0.592930 -0.477580 
1.057500 -0.205150 -0.022066 
-0.651900 0.771180 -0.286340 
0.139700 1.135700 -0.871730 
-0.136640 1.471000 -0.872260 
-0.124870 -1.215100 -1.059300 
-0.439800 -0.302570 -1.222000 
-0.020610 -0.922960 -1.269500 
-0.616400 1.280600 -0.560300 
-0.844060 0.294430 -0.958780 
0.361880 -1.071800 -0.869430 
-0.203060 1.225900 -0.652060 
0.972750 -0.779560 0.086566 
0.353280 0.419880 -1.355800 
-0.160160 -0.641100 -1.465900 
-0.557080 1.382400 -0.844440 
0.623180 -0.446190 -1.119600 
-1.054800 0.972760 0.030571 
0.249440 1.299500 -0.249250 
0.665540 -1.123900 0.127500 
-0.080560 1.253000 -0.295960 
-0.374690 1.271700 -0.744970 
0.436860 -0.855760 -0.216540 
-0.012371 -1.243100 -1.337300 
-0.896800 0.256710 -0.081370 
0.843260 0.149280 -0.255690 
0.452980 0.470300 -0.555440 
-0.753240 -0.398930 -0.237800 
-0.422390 1.259100 -0.665990 
0.599220 -0.276920 -1.171500 
0.485060 1.192900 -1.029800 
-0.760730 1.151000 -0.118080 
0.075206 -1.303200 -0.693440 
-0.812760 0.601080 -0.277590 
-0.649970 0.639580 -0.550410 
0.136210 -1.345800 -0.090863 
0.208510 -1.045900 -0.682760 
1.031100 -0.077637 -0.061687 
0.098730 -1.211500 -0.418750 
0.012083 1.374500 -0.145570 
0.674960 0.358860 -0.365630 
-0.423230 -0.298500 -0.880560 
-0.026643 -1.178100 -0.589720 
1.048700 0.330580 -0.251860 
1.189000 -0.088168 -0.066624 
0.447910 1.074600 -1.215000 
-0.843100 0.458200 -0.692680 
0.648660 -0.165870 -1.218900 
0.908570 0.837460 -0.261940 
0.719040 -0.927350 0.088326 
0.057876 -1.239700 -1.568900 
0.536150 1.053600 -0.322130 
0.315710 -1.075600 -0.899970 
-0.762160 0.125140 -0.191630 
0.078335 -1.307800 -0.769260 
0.246290 -1.293500 -0.899300 
0.052481 1.275800 -0.847490 
0.117150 1.283900 -0.605080 
0.551500 -0.622670 -0.832340 
-0.881370 0.666490 -0.088895 
0.113240 -1.281000 -0.115050 
0.922050 0.711700 -0.284080 
-0.544320 0.938980 -0.586670 
-0.615760 1.273600 -0.505160 
0.547390 -1.022900 0.075315 
-0.276090 -0.482460 -1.033300 
0.244480 1.122200 -0.964690 
0.576650 1.197800 -0.429150 
-0.792380 0.110030 -0.145650 
-0.581010 0.960930 -0.906840 
0.431890 -0.850920 -0.328390 
-0.589520 1.101800 -0.669030 
0.386140 1.226900 -1.510800 
-0.592830 -0.191020 -0.425390 
0.017831 1.312900 -1.059100 
0.407570 1.026300 -1.407500 
-0.539720 1.265100 -0.067952 
-0.866770 -0.643190 -0.249170 
-0.135930 -1.091900 -1.267500 
0.442830 1.233000 -1.011000 
-0.772340 0.054949 -0.163750 
0.167540 1.724300 -0.044996 
-0.425480 1.256400 -0.082660 
-0.568040 0.820910 -0.744780 
0.765110 -0.189200 -0.171390 
0.626670 -0.595200 -1.024900 
-0.593530 0.926260 -1.038600 
0.136200 -1.314300 -0.164110 
-0.934840 0.927440 0.009986 
-0.543850 1.403900 -0.905160 
0.737440 0.009001 -0.904560 
-0.630300 1.261600 -0.743780 
0.139150 -1.405500 -0.774430 
0.234850 -1.280700 0.085546 
0.639450 -0.416680 -0.257780 
0.171370 -1.259700 -1.505300 
-0.547030 -0.201790 -0.524080 
0.581520 -0.232460 -0.908710 
0.532240 1.136800 -0.482460 
-0.681860 1.268800 -0.199870 
0.192680 -1.299200 -0.461310 
0.386300 1.236400 -0.985420 
0.064900 -1.373900 -0.510630 
0.449160 1.075400 -1.045600 
0.083338 1.216700 -0.788200 
1.051200 -0.656880 0.063526 
0.269670 -1.215200 0.076250 
-0.176480 -1.077600 -1.095600 
0.749490 -0.017510 -1.265800 
0.468770 1.423400 -0.178850 
-0.139690 -1.019000 -0.669500 
-0.272620 -0.462540 -1.536700 
0.628430 0.066041 -0.826260 
0.953780 -0.394620 0.011858 
0.637330 1.302200 -0.231440 
-0.471000 1.189600 -0.237630 
0.746210 -0.038533 -0.779290 
0.693710 0.053232 -0.868660 
-0.507300 -0.961900 -0.339390 
0.471070 0.338130 -0.587700 
0.326680 1.004100 -1.011500 
-0.849120 0.270580 -0.125890 
0.580340 -0.639860 -0.918470 
-0.367160 1.164000 -0.460780 
-0.588680 1.285800 -0.878460 
0.164000 -1.411900 -0.465480 
0.562300 1.151700 -0.383530 
-0.575520 0.759130 -0.754510 
0.562110 -0.276670 -0.839390 
0.455750 0.159700 -0.906460 
0.554980 0.564430 -0.410390 
-0.568520 0.950800 -0.829820 
-0.837230 0.511730 -0.647230 
0.703200 -0.124000 -1.236000 
0.110570 1.488400 -0.091560 
0.142880 -1.447800 -0.267600 
0.394830 1.240200 -0.908650 
0.077512 1.333700 -0.699430 
0.046531 1.385400 -0.724720 
-1.014100 0.292780 -0.026846 
-0.823460 0.415480 -0.483720 
0.872690 1.096800 -0.221680 
-0.406650 1.470000 0.063578 
-0.209550 -1.245000 -0.441340 
-0.790220 0.597120 -0.356970 
-0.572410 1.080400 -0.945820 
-0.624580 1.175400 -1.119000 
0.463050 0.170400 -0.819980 
0.171200 1.149700 -1.075100 
-0.660520 1.462200 0.064486 
-0.515650 1.661100 0.084646 
-0.467670 -0.272110 -1.086300 
-0.740460 -0.319300 -0.234350 
0.531550 1.424500 -0.181580 
-0.569470 1.258100 -1.011400 
0.382430 0.277670 -1.145500 
0.179270 1.373100 -0.288360 
0.713400 -0.714030 -0.009837 
-0.661220 1.081200 -1.236800 
0.147990 -1.037800 -0.467140 
-0.117230 -1.039800 -1.080300 
0.167930 -1.378400 -0.999230 
0.331990 -0.905860 -0.223640 
-0.391770 1.697900 0.084826 
0.310610 0.640230 -1.313900 
0.606170 -0.646930 -0.970630 
-0.580770 1.373500 -0.969810 
0.348760 -1.011700 -0.032175 
0.202050 -1.083100 -0.788400 
0.495580 1.124700 -0.769420 
-0.387210 -0.335460 -0.932770 
0.242130 -0.961380 -0.482680 
-0.934030 -0.084588 -0.043753 
-0.611160 0.660390 -1.185700 
0.374300 0.420310 -1.457600 
0.913500 -0.906840 0.102210 
-0.250480 -0.932200 -0.453150 
-0.444470 -0.968550 -0.352560 
0.565510 -0.660060 -0.564500 
0.419910 1.328600 -0.247910 
0.647950 -0.400130 -1.228000 
-0.092942 -1.382700 -0.181610 
0.674730 0.901430 -0.265240 
-0.432860 -1.173600 -0.300640 
-0.082055 1.243800 -0.353960 
0.451320 0.400270 -0.589030 
0.431830 -0.851320 -0.272950 
0.065784 1.367900 -0.492040 
0.660940 -0.849290 -0.723760 
0.615770 -1.001000 0.085211 
-0.720520 0.255620 -0.699670 
-0.619540 1.358700 0.017884 
0.504360 -0.843820 -0.140780 
-0.849270 0.390700 -1.207700 
-0.851020 1.396200 0.036882 
0.657230 -0.810610 -0.780230 
-0.065044 -1.048500 -1.336800 
0.277580 -0.934140 -0.270670 
-1.197700 0.103060 0.010182 
-0.576110 0.785520 -0.989060 
-0.979460 1.328600 0.016479 
0.595340 1.414500 -0.181100 
0.111030 -1.198700 -1.386400 
0.602000 -0.844320 -0.021593 
0.860430 -0.870640 0.100600 
-0.916340 0.985710 0.010092 
-0.131460 1.678500 0.053468 
-0.024831 -0.899830 -1.577300 
0.703920 -0.993580 0.102870 
-0.850580 0.398130 -1.150000 
-0.302150 1.172300 -0.343800 
-0.651190 -0.119670 -0.339500 
0.113760 -1.222400 -1.462800 
-0.117660 -1.284200 -1.621100 
0.650940 0.038977 -1.333900 
0.582650 -0.324360 -0.457640 
0.267300 -1.021300 -0.102360 
0.384450 1.036600 -0.881580 
-0.893300 0.363800 -1.111000 
0.128780 -1.315800 -0.041606 
0.117420 1.204900 -1.133800 
0.617020 -0.678850 -0.205750 
-0.292840 -0.965300 -0.409560 
0.733280 0.097293 -0.443910 
-0.748810 -0.080426 -1.122700 
-0.607960 -0.825970 -0.316490 
0.297150 0.939970 -0.879280 
0.436910 0.735590 -0.481630 
-0.323100 -0.514320 -0.664790 
0.416640 0.962360 -1.605800 
0.471020 1.129600 -1.290700 
0.270690 -1.090100 -0.927230 
0.112990 -1.086300 -0.475950 
0.915000 0.773980 -0.273560 
-0.728550 0.564610 -0.859800 
0.193720 -1.504000 0.069344 
0.749080 -0.080003 -1.291200 
0.422700 -1.035800 -0.771950 
-0.643010 -0.175390 -1.150900 
-0.733890 0.356570 -0.609890 
-0.022469 -0.989430 -1.412800 
0.576290 -0.632980 -0.381340 
-0.061388 -1.292600 -1.474100 
-0.620020 0.818420 -1.290100 
-0.801970 0.339700 -0.238280 
-0.579440 0.814450 -0.445340 
0.114370 1.222600 -0.656280 
-0.660240 1.243500 -0.487330 
0.635510 -0.629510 -0.162320 
-0.852530 0.420260 -1.063000 
-0.945070 0.310850 -1.169400 
-0.341550 -0.392080 -0.897810 
-1.193500 0.483700 0.004085 
0.362970 -0.940090 -0.107340 
0.657050 1.393100 -0.180540 
0.315690 -1.219100 -1.129700 
-0.846480 0.455790 -0.763250 
0.306370 0.936360 -0.791980 
0.139850 -1.273500 -0.312840 
-0.492550 -0.285410 -0.582870 
0.312060 0.567760 -1.212000 
0.684920 -0.147640 -0.337670 
-0.664030 1.140400 -1.222400 
0.191180 1.412500 -0.211310 
-0.420970 1.168300 -0.390910 
0.850010 0.820870 -0.259730 
-0.675870 -0.141710 -0.291130 
-0.495580 1.318200 -0.002890 
0.273980 -0.976950 -0.592300 
-0.121720 -1.274600 -1.440500 
0.790600 -0.246760 -0.123150 
-0.735640 1.131800 -0.179690 
0.252390 1.196600 -1.281500 
-0.451330 1.384000 -0.817960 
0.683480 -0.361200 -0.212480 
0.346600 1.196300 -0.600840 
-0.112670 -1.274900 -1.532200 
-0.922950 -0.599850 -0.232230 
0.479550 0.142340 -1.417500 
-0.495640 -0.869110 -0.350390 
0.569570 -0.640070 -0.443620 
-0.610590 0.689170 -0.545540 
0.230130 -1.008800 -0.608410 
0.789370 -0.032126 -0.377960 
-0.852330 0.443750 -0.935700 
-1.263600 0.414200 -0.002152 
0.744850 -0.006061 -1.103600 
0.444420 1.260500 -0.660830 
0.192770 1.214700 -0.416500 
-0.157210 -1.084200 -1.181900 
-0.790330 0.430920 -1.181500 
-0.386890 -0.680380 -0.456620 
-0.537450 -0.129690 -0.766200 
0.098391 1.217900 -0.722120 
0.385760 1.244400 -1.598500 
0.666080 -0.636750 -0.103360 
-0.699820 1.202900 -0.402450 
0.375210 0.366170 -0.825560 
0.669160 0.177730 -0.408220 
0.091076 1.422100 -0.214010 
-0.789910 0.231390 -0.178730 
-0.770770 -0.646480 -0.262820 
-0.593880 1.031200 -0.985300 
-0.049580 -0.859210 -0.962000 
-0.679710 1.195800 -0.521930 
-0.249970 -1.576300 -0.151950 
0.801100 0.563260 -0.302240 
0.337370 0.998080 -1.238900 
-0.636740 0.583160 -1.172300 
0.187930 -1.416800 0.075684 
-0.601610 0.820670 -0.361310 
-0.347990 1.486800 0.062507 
-0.555670 0.943560 -0.750110 
-0.575510 1.018200 -0.914660 
0.336560 0.579220 -0.788320 
0.390060 1.040100 -1.138400 
0.204510 -1.356700 -0.532770 
-0.384520 -0.907300 -0.387440 
0.291150 0.862220 -1.206800 
-0.234210 1.542600 0.060682 
0.778770 -0.035915 -1.521600 
0.740040 0.034249 -0.592050 
-0.841260 0.459980 -0.621560 
0.645550 -0.159540 -1.143300 
0.603130 -0.801850 -0.522940 
-0.475940 1.212600 -0.151090 
0.887860 -0.315810 -0.034470 
-0.868090 -0.477230 -0.206480 
-0.604800 -0.658470 -0.316250 
-0.111080 -0.724440 -0.996750 
