-0.858700 -0.146850 -1.138000 
-0.006976 1.465100 -0.120080 
-0.403350 -0.679760 -0.816920 
0.787420 -0.219250 -0.637940 
0.204100 -1.344300 -0.348200 
0.502760 1.021800 -0.847490 
0.744260 -0.605260 -0.979450 
0.297990 -1.206300 -0.936460 
0.678670 0.590760 -0.392980 
0.105770 1.413600 -0.850460 
-0.804470 -0.503400 -0.248940 
0.434090 -1.131200 -0.726060 
-0.526630 -0.618730 -0.484530 
0.770810 0.992900 -0.242480 
0.424930 1.301100 -0.515260 
-1.146200 0.735560 0.013009 
-0.964880 0.043418 -0.885590 
-0.209600 -0.905430 -1.598500 
-0.973240 0.476420 -0.618120 
0.225500 -1.434800 -0.493090 
0.511020 0.612820 -1.450500 
-0.757870 1.102800 -1.114200 
-0.587200 -0.792310 -0.351320 
-0.309630 -0.809480 -1.284800 
0.731100 0.114490 -1.021100 
-0.693870 1.167500 -0.949040 
0.499300 0.958420 -0.927090 
-0.864300 0.227050 -0.238580 
-0.284410 1.344100 -0.372850 
0.136980 -1.324600 -1.323600 
0.813550 0.064454 -1.595900 
-0.271140 -0.933950 -0.619220 
0.833290 -0.122840 -1.356700 
0.491520 0.958880 -1.084000 
-0.642280 -0.390950 -1.496800 
0.948400 -0.767570 0.075066 
0.703110 0.350680 -0.440770 
-0.500700 -0.862120 -0.393050 
-0.919870 0.326580 -0.203770 
0.563790 0.630360 -0.562240 
0.501300 1.011400 -0.622370 
-0.797170 0.005735 -0.279330 
1.084300 -0.672680 0.060106 
0.861720 -0.105210 -0.493540 
-0.541500 1.293100 -0.402380 
-0.236160 1.341800 -0.512880 
-0.604190 -0.357180 -0.802210 
-0.458400 -1.222400 -0.304460 
-0.756650 1.172900 -1.193800 
-0.107470 -1.313800 -0.997350 
-0.836640 0.770820 -0.251270 
0.411510 -1.044400 -0.526220 
0.317560 1.287100 -0.485760 
0.837250 -0.220640 -0.237890 
-0.690020 -0.333910 -1.349800 
-0.805850 0.763560 -0.452900 
-0.807950 0.719750 -0.963230 
-0.646660 -0.683980 -0.332570 
0.283440 1.325800 -0.396050 
0.641600 -1.014000 0.051315 
-0.845070 0.309420 -0.606770 
0.389020 1.307700 -0.389590 
0.213740 -1.304300 -0.812570 
0.764240 -0.221170 -1.160800 
0.084973 -1.445100 -0.602940 
-0.219260 -1.127100 -1.109100 
-0.815560 -0.684310 -0.265870 
-0.581210 -0.396160 -0.888280 
-0.270530 1.483900 -0.823720 
-0.973570 0.434180 -1.214200 
0.083428 -1.326100 -1.425800 
0.787910 0.556110 -0.326380 
-0.618440 1.387100 -0.989230 
0.678230 0.157490 -1.104000 
0.012034 -1.300600 -1.292300 
1.071900 -0.425730 0.021158 
-0.781650 0.716620 -1.128600 
0.185610 1.351200 -1.178400 
0.764170 -0.393040 -0.629520 
0.558510 1.127600 -1.266000 
-0.126400 1.658000 0.052419 
0.716270 0.285560 -1.680700 
0.878450 -0.073223 -1.459300 
-0.456180 -1.315100 -0.274280 
-0.475270 -1.001900 -0.371230 
-0.438650 -0.562650 -1.433100 
0.648840 -0.955130 -0.670770 
0.949480 -0.096348 -0.152710 
0.881030 0.134840 -0.306270 
-0.049454 -1.319100 -0.373130 
-0.740490 0.961910 -0.973520 
-0.723720 -0.109980 -0.779470 
0.561190 0.473380 -1.539900 
-0.889890 0.338870 -0.297160 
-0.818630 0.578480 -1.324500 
0.223340 1.429400 -0.270940 
-1.201800 0.816860 0.017813 
0.482990 -0.954850 -0.494250 
-0.432730 1.307200 -0.248890 
1.031500 -0.815200 0.079585 
-0.711430 -0.237250 -1.024700 
-0.263970 -1.139100 -0.466240 
-0.853590 1.302000 -0.000179 
-0.748370 1.005200 -0.815470 
0.847100 -0.787150 0.047538 
-0.527990 -0.453950 -1.412400 
0.818390 0.448170 -0.325510 
0.743190 -0.565670 -0.274380 
0.393200 -1.098500 -0.624200 
-0.893140 0.018377 -0.811380 
0.786680 0.135870 -0.474830 
0.768230 -0.413290 -0.387530 
0.610870 0.289260 -0.957730 
-0.746660 -0.042875 -0.612420 
-0.686990 -0.199530 -0.815260 
0.742630 -0.494930 -0.599720 
0.012905 -1.347000 -0.625060 
0.552430 0.883890 -1.574200 
0.498900 1.017000 -0.735170 
0.262720 1.424500 -1.357400 
-0.587020 -0.514550 -0.466780 
-0.817690 -0.124630 -1.053100 
0.617980 0.886710 -1.706100 
-0.229490 -1.147400 -0.737210 
-0.212420 -1.237600 -1.368200 
0.499290 1.021800 -1.159900 
-0.415760 -0.652760 -1.035700 
0.506670 -0.967820 -0.607330 
0.107140 1.448600 -0.473620 
-0.952040 0.581590 -0.624100 
0.199040 1.330600 -0.616780 
-0.982740 0.142800 -0.950470 
-0.661300 -0.286910 -0.953030 
0.422450 1.272500 -1.273400 
-0.185920 -0.999790 -1.055100 
0.734420 0.100840 -1.433100 
-0.844540 1.083700 -0.062261 
0.562850 0.753620 -1.636900 
-0.991080 0.399610 -1.056300 
0.640040 0.228330 -0.878950 
0.537550 1.067100 -1.363200 
0.767860 -0.318110 -0.514570 
-0.726720 -0.125960 -0.433710 
-0.598780 -0.425430 -0.540370 
-1.122400 -0.140900 -0.032805 
0.593330 -0.913110 -0.511330 
1.178400 -0.222020 -0.029220 
0.208890 -1.321200 -0.623120 
0.878040 -0.004501 -1.195700 
0.857710 0.348090 -0.307030 
0.170380 1.648100 -0.047042 
0.619370 0.616080 -1.719800 
-0.850380 -0.193560 -1.243800 
0.546190 1.328000 -0.527300 
-0.169550 1.465800 -0.046584 
0.788180 -0.354180 -1.268300 
0.487670 -0.968670 -0.200760 
-0.065870 1.408900 -0.203640 
0.299610 -1.101700 -0.384310 
0.537980 1.136700 -0.765440 
-0.303810 1.402300 -0.753010 
0.535440 1.125300 -0.550280 
-0.763220 0.837310 -0.927050 
-0.831610 0.711780 -0.533080 
0.734270 -0.671440 -0.167200 
0.712540 -0.582420 -0.841120 
0.208530 -1.321100 -0.011960 
-0.048886 1.442000 -0.584980 
0.726180 -0.570690 -0.373140 
0.693760 0.146600 -1.532600 
-0.072857 1.382800 -0.315970 
0.848140 0.073218 -0.827890 
-1.021400 1.180700 0.021148 
0.346290 1.270700 -0.745470 
-0.153130 1.427400 -0.737000 
0.754890 -0.268880 -1.028800 
-1.132200 0.483510 -0.024941 
-0.548990 1.322900 -0.506550 
0.047756 -1.472600 -0.277730 
-0.783650 0.825190 -0.639780 
0.948070 0.161050 -0.232310 
-0.829170 1.493300 0.035838 
0.210930 -1.330700 -0.487910 
-0.245750 1.374900 -0.681960 
-0.103880 -1.314200 -0.887110 
-0.369090 -0.682650 -1.448000 
-0.124880 -1.346200 -0.280120 
-0.970760 0.477240 -0.382950 
0.164190 1.436200 -1.246300 
0.822660 -0.458890 -1.236800 
0.444610 1.394600 -0.228710 
0.141230 -1.457300 -0.969840 
-0.865170 0.664340 -0.417270 
-0.734920 1.255600 -0.400740 
0.677540 0.183320 -0.693280 
1.045500 -0.029011 -0.108190 
-0.183240 -0.989490 -1.172200 
-0.015335 -1.371400 -0.299390 
-0.443490 -0.609140 -0.920810 
0.326590 -1.351800 -1.263700 
0.577460 0.344880 -1.203600 
0.553650 0.493710 -0.739950 
0.706900 0.147440 -1.666400 
0.244650 -1.139700 -0.278610 
-0.603360 1.334000 -0.088526 
-0.174400 1.366300 -0.281400 
-0.793130 0.775920 -0.860550 
0.781570 -0.233480 -0.746020 
0.522430 1.083000 -0.917490 
-0.777740 0.027959 -0.380170 
-0.675690 -1.006100 -0.324230 
-1.039200 1.037400 0.024819 
-0.157730 -1.339500 -1.406500 
0.122900 1.447800 -0.303260 
0.542530 1.361900 -0.273240 
0.197060 -1.654700 0.012307 
1.094600 -0.281580 -0.011318 
-0.730990 -0.204040 -0.370180 
0.190060 -1.461000 -0.832580 
0.679420 0.163680 -0.949890 
0.607580 0.282600 -1.115100 
-0.927380 0.480640 -1.306600 
0.860780 0.046777 -0.533800 
1.181900 0.031513 -0.108300 
0.576760 1.307000 -0.741100 
-0.536270 -0.464150 -0.794950 
0.857680 -0.123480 -0.641720 
0.193260 -1.360700 -0.241230 
0.525140 1.297000 -1.067900 
0.734710 1.379800 -0.187760 
0.770440 -0.457990 -1.122200 
-0.474500 -0.631300 -0.576190 
-0.949550 -0.081462 -0.071098 
0.224030 -1.230500 -0.086716 
-0.310500 -0.833960 -0.969410 
0.542520 -1.077200 -0.784730 
-0.870980 0.609150 -0.944930 
0.987830 -0.271080 -0.046462 
0.529790 1.066700 -0.476170 
-0.182970 -0.978320 -1.384300 
-0.572230 -0.683450 -0.391710 
-0.446480 1.300100 -0.520240 
0.218020 1.339000 -0.494710 
-0.925670 0.125920 -0.805340 
0.178230 -1.236900 -0.307790 
0.150870 -1.423500 -1.076000 
0.503670 0.823190 -1.090700 
-0.840230 0.712680 -0.335260 
0.062240 1.446100 -0.387710 
-0.343700 -0.785310 -0.893800 
0.601440 0.274530 -1.284300 
0.671040 0.902930 -0.312610 
0.696510 -0.721120 -0.713780 
0.358310 -1.170100 -0.793140 
0.197660 -1.210400 -0.616020 
0.556520 0.563080 -0.632450 
-0.909120 0.390350 -0.620870 
-0.811610 1.007300 -0.123270 
-0.741960 -0.612660 -0.283840 
-0.039158 1.416400 -0.478590 
-0.468720 -0.569690 -0.809220 
-0.176700 -1.111000 -1.354800 
-0.673360 -0.327160 -1.196500 
-0.912370 0.627050 -0.706400 
-0.754430 1.048700 -0.225490 
-0.692140 1.154100 -0.855270 
-0.565580 1.382000 -0.015896 
0.377810 -1.324600 0.135970 
0.529870 0.612360 -1.547100 
0.168970 1.318400 -0.831690 
0.083251 -1.636900 -0.066775 
-1.039100 0.708950 -0.028537 
-0.387280 -1.055000 -0.388190 
0.776060 -0.233190 -1.339200 
-0.271230 -1.217800 -0.607860 
0.283590 -1.321100 0.076772 
0.619750 0.577360 -0.470730 
-0.681820 -0.909760 -0.315480 
-0.408810 -0.727360 -0.614670 
0.534120 0.990730 -1.694800 
0.693820 -0.686030 -0.807920 
0.505460 0.947100 -1.383600 
-0.702120 -0.151610 -0.535780 
0.581930 1.201300 -0.942760 
-0.251160 -1.244400 -1.162300 
-0.802070 0.045293 -0.591120 
0.891450 0.013859 -0.968920 
0.729500 0.481750 -0.376580 
0.290190 -1.294100 -1.089600 
0.347590 -1.076100 -0.265940 
-0.823280 -0.039459 -0.888740 
-0.354890 1.513300 0.050846 
-0.151560 -1.412000 -0.197590 
0.692660 -0.701880 -0.609270 
0.519700 0.548460 -1.260500 
0.501110 0.890500 -1.007700 
0.699140 -1.147200 0.127520 
0.958960 0.268560 -0.246490 
-0.743160 1.075200 -0.956670 
-0.212950 -1.297000 -1.285900 
-0.731460 0.987340 -0.458710 
0.498900 0.817730 -1.398400 
-0.922860 0.485250 -1.130800 
0.056751 1.610300 -0.016427 
-0.900170 0.622930 -0.810590 
-0.729430 1.043700 -0.372470 
-1.037600 0.289240 -1.089600 
-0.341580 -0.746420 -1.365900 
-0.763600 1.212700 -0.271240 
0.775660 -0.301110 -0.401960 
0.742730 -0.497610 -0.986720 
-0.336600 1.403900 -0.076041 
-0.539350 1.300800 -0.173830 
0.326820 -1.153600 -0.051302 
0.261710 -1.368400 -1.182400 
-1.254000 0.335860 0.001576 
-0.287690 -0.795620 -1.595900 
0.531230 1.130900 -0.657450 
-0.407880 -0.624710 -1.354900 
0.008081 -1.317700 -1.172900 
0.514210 0.819660 -0.665220 
0.604270 1.288400 -0.417680 
0.725820 -0.880550 -0.695320 
-0.608530 1.498900 0.063358 
0.787680 -0.169050 -1.257800 
0.839110 1.223200 -0.207930 
0.799100 -0.156060 -1.073600 
0.246500 1.266400 -1.014000 
0.891970 -0.332210 -0.100040 
-0.795870 0.094462 -0.454470 
-0.666980 -0.235150 -0.621130 
-0.834910 0.246560 -0.355390 
0.283260 -1.135200 -0.598060 
0.492700 1.233800 -1.629300 
0.224070 -1.202600 -0.736430 
0.607250 0.475040 -1.630500 
-0.654700 -0.328400 -0.500220 
0.470340 -1.030200 -0.091165 
-0.774000 -0.179380 -0.283030 
-0.314490 -0.821670 -1.122100 
0.608350 1.232700 -0.517950 
-0.683440 1.372500 -0.014413 
0.045629 1.739800 -0.002398 
-0.494720 1.445300 -0.852370 
0.647410 1.021400 -0.297480 
-0.767550 0.928530 -1.251500 
0.318460 -1.148700 -0.702900 
0.192140 -1.467100 -0.730260 
0.774150 0.117250 -0.580420 
-0.997720 0.819330 -0.018222 
0.636420 0.214320 -1.191700 
-0.957030 0.746400 -0.075320 
0.562190 0.417910 -1.083200 
-1.030400 0.088053 -0.018127 
0.814840 -0.147630 -0.965220 
-0.191900 -1.172200 -1.449800 
0.539700 0.483120 -1.169900 
-0.773700 1.304300 -0.053373 
-0.188920 -1.076500 -0.985920 
0.366230 1.333000 -1.484500 
-0.720980 -0.506760 -0.306840 
-0.282290 -1.239800 -0.512010 
0.181660 -1.435100 -0.029575 
-1.021600 0.362860 -0.088389 
-0.694160 1.290000 -0.258400 
0.871930 -0.086860 -0.381200 
0.332510 1.408900 -0.233290 
-0.492390 -1.110300 -0.337930 
0.318510 1.253600 -0.945380 
-0.969800 0.528960 -0.743370 
-1.127900 0.350470 -0.014600 
0.045718 -1.387500 -0.510260 
-0.663490 1.286800 -0.710840 
-0.738660 1.047000 -0.550710 
0.759100 -0.302370 -0.826410 
0.792390 0.082634 -1.172000 
-0.254430 -0.852970 -1.505500 
0.619540 0.447700 -0.533000 
-0.578190 -0.405320 -1.316400 
-0.900380 -0.032940 -0.946660 
-0.834040 0.718180 -0.717810 
-0.926510 0.923060 -0.037996 
-0.803680 -0.272430 -0.238310 
0.102810 1.519100 -0.100140 
0.151710 1.373300 -0.737650 
0.025715 1.430700 -0.277220 
-0.711050 1.247500 -0.605380 
0.890070 -0.013429 -0.631470 
0.413790 1.288000 -1.048400 
0.569950 1.193400 -1.175100 
-0.937980 -0.358810 -0.156820 
1.048700 0.330580 -0.251860 
0.120250 -1.540100 -0.112890 
0.181590 -1.222700 -0.450370 
0.233450 1.291200 -0.711260 
-0.229820 -1.141600 -0.845360 
0.786660 -0.627440 -0.096015 
0.342700 -1.211600 -1.058700 
-0.691170 1.289100 -0.515200 
-0.416650 -0.929700 -0.436810 
-0.204640 1.732200 0.062765 
-0.174750 1.548500 0.029391 
-0.185160 -1.014600 -0.869930 
-0.752870 0.851900 -1.131800 
-0.266940 -1.188700 -1.039700 
0.271420 1.324900 -1.275400 
0.930550 0.650920 -0.292480 
-0.594410 -0.377290 -0.700550 
0.575630 -1.215300 0.139270 
-0.762810 1.153400 -0.348660 
0.788760 -0.346540 -0.302770 
-0.954420 0.417460 -0.874510 
-1.033000 -0.325120 -0.117860 
0.220530 -1.404600 -0.925370 
0.764280 0.254090 -0.396650 
-0.815580 -0.777170 -0.283980 
-0.646030 1.309900 -0.173210 
0.726610 0.122990 -0.835700 
-0.043897 -1.426300 -0.209950 
0.694240 -0.618740 -0.741510 
0.744390 -0.376340 -0.933630 
0.517190 0.691070 -1.052000 
0.802260 -0.187020 -0.411600 
0.546580 1.307700 -0.956010 
-0.751800 0.928220 -0.353790 
-0.586690 1.407400 -0.897510 
-0.814040 1.056700 -1.321700 
0.493890 1.225600 -1.496400 
-0.358850 1.442700 -0.818160 
-0.743380 1.153500 -0.603880 
0.754130 -0.916690 -0.819700 
0.520470 -0.922690 -0.282940 
-0.510270 -0.456830 -1.540800 
0.259800 -1.201400 -0.843170 
-0.378600 -0.690160 -1.276500 
0.086708 1.464500 -0.194240 
0.635530 0.207320 -1.365000 
-0.298920 -0.850890 -0.789350 
1.041800 -0.572800 0.048950 
0.393950 1.279800 -0.841150 
0.728840 -0.795430 -0.808710 
0.900230 -0.065318 -0.271640 
-0.351990 -0.772150 -1.041800 
0.651520 -0.823430 -0.392220 
0.590480 0.950170 -0.381990 
-0.446480 -0.569590 -1.265800 
-0.292010 1.341900 -0.602960 
-0.846350 -0.377770 -0.210580 
-0.526950 -0.456850 -1.249500 
-0.761050 0.886160 -0.741080 
0.564700 1.311100 -0.846980 
-0.789170 -0.282460 -1.378700 
0.407440 -1.144000 0.017252 
1.152100 -0.086028 -0.065172 
0.156320 -1.573500 -0.022889 
0.749050 -0.415900 -0.799270 
-0.168590 -1.319100 -0.818840 
-0.651140 -0.266550 -0.719580 
-0.396920 1.318700 -0.605420 
-0.259170 -1.263500 -0.712190 
0.789750 -0.454650 -0.220350 
-0.385840 1.309300 -0.376390 
-0.453450 1.681100 0.086419 
-0.722920 1.276900 -1.144700 
0.798090 -0.189510 -0.839100 
0.629310 -0.863570 -0.133950 
0.711240 -0.667660 -0.258900 
-0.609590 1.370100 -0.710790 
-0.507540 1.371900 -0.696980 
-0.057525 1.584100 0.012649 
-0.701120 -0.317320 -0.390500 
0.716390 0.420310 -1.685400 
0.565040 0.885340 -0.450020 
-0.778330 0.934120 -0.236390 
0.005079 1.461800 -0.940420 
0.036302 -1.392500 -0.405470 
0.468360 1.325000 -0.702220 
-1.156800 -0.029907 -0.002433 
0.854680 0.821190 -0.262130 
0.434750 1.301500 -0.940650 
-0.768380 0.715270 -1.315900 
0.764210 0.374200 -0.369250 
1.023400 0.127100 -0.176660 
-0.574760 -1.053500 -0.332820 
1.074500 0.233900 -0.206430 
0.640020 0.235320 -0.768640 
0.497470 1.327700 -0.446400 
0.802890 1.135200 -0.214500 
-0.464380 -0.590720 -0.705620 
-0.753180 0.891630 -0.848160 
0.633020 0.706490 -0.405520 
0.795030 0.093684 -0.941980 
0.700940 1.281000 -0.211170 
0.586380 0.356970 -0.884990 
0.566630 0.425300 -0.812370 
-0.316000 -1.240400 -0.363450 
-0.603720 -0.374290 -1.069500 
0.505880 0.614640 -1.354900 
-0.436920 1.340300 -0.138130 
0.311070 1.322300 -1.361700 
0.550610 -0.944940 -0.118710 
0.554480 -1.414500 0.176200 
-0.301690 -0.869220 -0.686460 
-0.381240 -0.719670 -0.964320 
0.827480 0.079542 -0.648600 
-0.170910 -1.045000 -1.482000 
0.771280 -0.565920 -0.176350 
0.114220 -1.365400 -1.176300 
-0.948940 0.423130 -0.780490 
-0.818500 -0.079282 -0.212520 
0.735580 -0.483900 -0.893130 
-0.777930 1.229000 -0.149460 
-0.882600 0.232360 -0.818950 
0.645880 0.323210 -0.561100 
0.538990 1.180600 -1.383300 
-1.252100 0.628560 0.002235 
0.738110 0.665650 -0.328150 
0.819890 0.161130 -0.376690 
-0.803280 0.000338 -0.700810 
-0.102290 1.440700 -0.943430 
0.436170 -1.000300 -0.293640 
0.509360 1.507100 -0.157500 
0.705590 -0.590460 -0.563590 
0.743690 -0.761680 -0.918760 
-0.889010 0.337470 -0.799490 
0.482840 -1.330400 0.165930 
0.492190 0.888120 -1.170100 
-0.424270 -0.563410 -1.566100 
0.547800 0.489660 -0.927980 
-0.752010 0.937160 -0.619760 
0.834700 -0.453970 -0.121240 
-0.913710 0.385460 -0.395630 
0.707990 -0.810910 -0.615390 
-0.359220 -0.681030 -1.585700 
-0.830650 0.152700 -0.577870 
-0.745060 1.099200 -0.463580 
0.256740 1.504500 -0.154690 
0.515440 0.758710 -0.972090 
-0.664640 1.292900 -1.047100 
0.762570 -0.348200 -1.170800 
-0.216630 -0.936920 -0.976100 
-0.339340 -1.142300 -0.367930 
0.053709 -1.371200 -1.085600 
-0.777590 -0.108060 -0.964830 
-0.749690 0.998390 -0.710600 
0.887540 -0.054461 -1.033700 
0.595780 1.419300 -0.191150 
0.153250 1.318300 -0.962390 
-0.642770 1.300300 -0.372470 
0.185520 -1.438400 -0.146060 
-0.383730 -0.703860 -1.115900 
-0.909080 0.389380 -0.493240 
-0.755600 0.844230 -1.030700 
-0.134220 1.379700 -0.623070 
0.653200 0.252470 -0.625400 
0.245380 -1.295200 -0.956350 
0.213900 -1.444000 -0.391300 
0.918850 0.041041 -0.276450 
0.200970 1.396000 -0.382280 
-1.231600 0.487830 -0.002386 
-0.337640 1.323600 -0.475700 
0.267800 -1.413700 0.103650 
-0.457740 -0.710720 -0.522260 
0.844100 0.690750 -0.287370 
-0.977140 0.532210 -0.258080 
0.727350 0.106230 -1.260900 
-0.881780 0.153650 -0.166500 
0.508640 0.751240 -1.498100 
-0.769880 1.397200 0.020159 
-0.731960 1.105200 -0.761530 
-0.708650 -0.191100 -0.915080 
0.620360 0.272210 -1.513600 
-0.888460 0.726940 -0.177700 
-0.555840 1.356600 -0.604270 
1.155700 -0.368280 0.004630 
-0.763220 0.783880 -1.383300 
0.640740 0.221710 -1.030700 
-0.158260 -1.319300 -0.501910 
-0.696930 1.548600 0.061754 
0.207380 -1.509000 0.050507 
0.762040 -0.349430 -0.728540 
-0.246330 1.615300 0.072123 
0.930490 0.530300 -0.298380 
-0.440210 -1.407600 -0.246720 
0.234220 -1.384900 -1.053900 
1.153100 0.137820 -0.155370 
0.837300 -0.561740 -1.178300 
0.960050 0.006981 -0.196410 
0.884970 -0.079253 -0.729040 
-0.010184 1.494000 -0.717630 
0.503940 0.885890 -0.739350 
-0.258050 -1.412100 -0.206960 
0.587730 0.435940 -0.632060 
-0.110070 -1.344800 -1.273100 
0.892490 -0.527180 -0.021206 
-1.197700 0.103060 0.010182 
0.790790 -0.899280 0.063974 
-0.568440 -0.413790 -1.160000 
-0.557150 -0.431790 -1.009400 
-0.908700 0.624290 -0.527540 
0.570650 1.068700 -0.375620 
-0.559420 1.408100 -0.791810 
0.131870 -1.470500 -0.518730 
0.851820 0.235770 -0.309870 
-0.212940 -0.954470 -0.792480 
-0.329940 1.711900 0.080274 
0.829750 -1.092100 0.115770 
0.881660 0.031348 -0.749260 
-0.815060 0.652900 -1.054500 
-0.958540 0.524480 -0.843950 
-0.841750 0.309230 -0.483490 
0.191830 -1.468400 -0.594130 
-0.449920 1.395400 -0.036023 
-0.078318 1.741800 0.034685 
0.526870 1.081600 -1.071300 
0.692320 -0.684990 -0.498190 
-0.149690 -1.331000 -1.626300 
-0.217900 -0.915970 -1.292100 
0.301630 1.276400 -0.617280 
-0.919470 0.067562 -0.095059 
-0.758610 -0.097381 -0.339500 
-0.705200 -0.126580 -0.656010 
0.088840 1.406900 -0.967200 
-1.051000 0.595670 -0.064476 
0.828040 -0.336130 -0.195270 
0.836010 -0.115330 -1.166800 
0.048761 -1.404400 -0.720730 
0.885240 0.013507 -0.414730 
-0.842170 1.213100 -0.042163 
0.315900 -1.107400 -0.503980 
-0.945120 0.515850 -0.943030 
0.855680 0.039723 -1.452100 
0.634650 -0.934830 -0.021686 
0.762260 0.860880 -0.271300 
0.300540 -1.117400 -0.185900 
0.505030 1.014600 -1.286400 
0.550950 1.004600 -1.600600 
-0.588790 1.292400 -0.287600 
-0.722290 1.197400 -1.065700 
0.653680 0.279130 -1.604700 
1.124900 -0.521130 0.034782 
-0.988300 0.244880 -1.015200 
0.717140 0.786430 -0.309840 
-0.959770 0.634470 -0.152170 
-0.695840 -0.227230 -0.463340 
0.846020 0.045779 -1.285100 
0.703020 -0.842150 -0.040083 
-0.129010 -1.519300 -0.138800 
0.688010 -0.771240 -0.161120 
0.523660 0.883280 -1.483700 
0.891780 -0.082630 -1.582200 
-0.226940 -1.298700 -1.081500 
0.940080 -0.400490 -0.031345 
0.245500 -1.382300 -1.374100 
0.539540 0.474200 -1.443200 
0.790450 -0.203200 -0.526570 
0.380470 1.517600 -0.146240 
-0.995580 0.172030 -0.049080 
-0.263240 -1.258500 -0.817940 
-0.763430 0.788350 -1.229700 
0.115480 1.435800 -1.164800 
0.602290 1.239000 -0.616490 
0.622600 1.186300 -0.325560 
-0.039473 -1.327200 -0.704930 
-0.019845 -1.307700 -1.592300 
0.716720 1.101300 -0.236720 
0.144820 1.424900 -0.561710 
0.536580 1.332700 -0.623600 
0.891650 -0.891120 0.089982 
-0.483580 -0.507110 -1.340200 
0.686260 -0.721920 -0.355320 
-0.578480 -1.171100 -0.324170 
-0.190520 -1.028200 -0.724190 
0.591290 0.363870 -0.737130 
-0.919940 0.625830 -0.262700 
-0.170460 -1.052500 -1.260800 
0.566830 -1.113400 0.084484 
0.390030 1.278700 -1.161300 
-0.261490 -0.858060 -1.373400 
-0.113720 -1.328500 -1.152600 
0.407570 -1.054900 -0.157630 
-0.765030 0.875030 -0.480320 
0.514790 0.756270 -0.741310 
0.567700 0.614080 -1.638400 
0.492980 0.884790 -1.300700 
0.279530 1.283800 -1.163200 
0.307250 -1.237400 0.033775 
0.396600 -1.038800 -0.394880 
0.796300 -0.293390 -1.437300 
0.779150 -0.562750 -1.081400 
0.730520 -0.512680 -0.728670 
0.337380 -1.585700 0.134650 
-1.105700 0.853480 0.023201 
0.644810 -0.814180 -0.285270 
0.538630 1.006400 -1.461900 
-0.572510 1.609400 0.081647 
0.842320 -0.645980 -0.015712 
0.546350 1.123900 -1.485900 
-0.879070 -0.047258 -0.130540 
0.486040 1.614000 -0.139860 
-0.515190 -0.494380 -0.945740 
0.740760 -1.016100 0.092228 
-0.819460 0.206370 -0.498010 
0.714870 -0.579280 -0.469920 
-0.682500 -0.814920 -0.309320 
-0.217020 -1.176000 -1.278800 
-0.413920 -0.635790 -1.190700 
0.534610 0.691480 -0.630560 
-1.026300 -0.047198 -0.025330 
0.782190 0.101410 -0.760110 
0.875610 -0.011680 -1.354400 
-0.652810 1.238500 -0.805760 
0.766250 -1.213500 0.132600 
-0.038487 -1.312100 -0.523470 
-0.854160 -0.169650 -0.168550 
-0.375010 1.615900 0.088618 
0.501060 1.280000 -1.182900 
0.030277 1.469300 -1.090400 
-0.922950 -0.599850 -0.232230 
-0.188590 -1.290900 -1.498300 
0.747610 -0.390490 -1.034700 
-1.134600 1.003400 0.025318 
-0.629960 1.309400 -0.924900 
-1.051700 0.341220 -1.170500 
-0.752870 0.987840 -1.171500 
0.622850 1.297600 -0.299740 
0.519000 1.115800 -1.620100 
-0.264920 -1.012900 -0.521900 
0.086046 -1.515300 -0.202710 
-0.286080 1.464400 -0.007643 
0.930530 -1.003300 0.100840 
-0.927910 1.126500 0.001207 
-0.214710 -1.176000 -1.584800 
0.475830 -1.214400 0.115780 
0.663540 -0.900500 -0.586620 
0.991800 -0.481010 0.019223 
0.192710 -1.395400 -1.460700 
-0.748930 1.206500 -0.515950 
0.534700 0.557630 -0.853420 
0.666700 -1.313800 0.155850 
0.047650 -1.406600 -0.827750 
-0.449420 -0.585590 -1.107500 
0.636800 0.759260 -1.705600 
-0.038935 -1.325800 -0.810850 
-0.996570 0.422620 -0.163880 
-0.853560 0.091184 -0.662610 
0.509740 0.823050 -0.854800 
0.792290 -0.162110 -1.517600 
-0.971380 0.531680 -0.503860 
-1.144500 0.610290 -0.007063 
-0.537170 -0.526500 -0.563170 
-0.280070 1.376600 -0.183550 
0.932140 -0.208850 -0.110900 
0.633430 0.832830 -0.367090 
-0.350090 -0.757910 -1.198600 
0.570480 -0.894330 -0.392520 
-0.261560 -1.310200 -0.416740 
-0.935010 1.388500 0.019379 
0.915770 -0.675650 0.043588 
-1.134400 0.202390 0.005464 
0.347130 1.620400 -0.108280 
0.686220 -0.994180 -0.768650 
0.762250 -0.255000 -0.922860 
-0.785900 1.115300 -0.156190 
-0.041789 -1.336300 -1.385400 
0.802250 -0.666820 -1.065000 
0.532230 0.555080 -1.048700 
-0.621180 -0.345500 -0.615870 
-1.035700 -0.181990 -0.058485 
-0.074411 1.489400 -0.837320 
0.762300 -0.427760 -0.494650 
0.498170 0.753610 -1.263800 
0.227120 -1.366700 -0.725630 
-0.942090 0.579440 -0.409980 
-0.530080 -0.485960 -0.692250 
-0.166400 -1.322700 -0.712870 
-0.850300 0.200650 -0.665530 
0.706170 0.216950 -0.518160 
0.526620 1.235900 -1.283800 
-0.174940 -1.038000 -1.615600 
-0.792370 0.819810 -0.368180 
-0.161540 -1.324300 -0.396070 
0.047709 1.476200 -0.611860 
-0.485020 -0.518850 -1.179200 
0.364160 -1.423300 0.159680 
-0.746510 -0.248080 -1.127800 
-0.747450 1.033000 -1.050700 
0.899940 -0.035429 -0.849820 
-0.746400 -0.104520 -0.872630 
-0.454380 1.401900 -0.776540 
-0.764130 -0.386920 -0.281590 
0.529030 0.624890 -0.741500 
-0.086799 -1.339300 -1.527300 
0.901900 0.901850 -0.250210 
1.073600 -0.145700 -0.054551 
0.174680 -1.333400 -0.124700 
0.411140 -1.194300 -0.920280 
-0.774500 -0.258900 -1.231700 
0.667350 0.463350 -0.446240 
0.494690 -1.179400 -0.836040 
-0.631400 -0.577320 -0.371750 
0.517730 0.945990 -0.549950 
-0.265800 -0.876830 -1.048000 
-0.171070 1.397900 -0.171780 
0.091486 -1.335100 -1.536900 
0.086120 1.463800 -0.730550 
-0.258600 -0.888690 -0.898720 
-0.666240 -0.442770 -0.387850 
-0.141240 -1.621400 -0.127160 
-0.483630 -0.538640 -1.026200 
0.995150 0.428880 -0.285520 
-0.377410 -1.484100 -0.203930 
0.519090 0.691540 -0.855560 
0.543380 0.756750 -0.557270 
-0.333790 1.341400 -0.290710 
-1.007500 0.534730 -0.155490 
0.579100 0.697300 -0.493280 
-0.270830 -1.193800 -0.924660 
0.010860 -1.346700 -0.946500 
-0.887450 0.544140 -1.060400 
0.111120 1.388300 -1.078300 
-0.902640 -0.266460 -0.147280 
0.186560 1.306900 -1.076800 
0.415120 1.297000 -0.611610 
0.494990 -1.032100 -0.695640 
0.189430 -1.461600 -0.258310 
0.738870 -0.732240 -0.092009 
-0.243610 -1.545400 -0.152780 
-0.813640 0.135840 -0.332080 
0.402180 1.273000 -1.399400 
-0.917580 -0.507760 -0.207080 
0.853860 -0.394370 -1.342600 
-0.448760 -0.793910 -0.474330 
0.433320 1.328500 -1.561700 
0.669070 -0.838920 -0.492440 
0.550620 -1.018100 -0.010734 
-0.023413 -1.531000 -0.143680 
-0.830340 0.582280 -1.169900 
-0.391480 -0.804860 -0.557570 
0.854740 0.060200 -1.050000 
0.580020 1.198100 -0.832400 
-0.177950 1.347200 -0.420130 
-0.927380 0.317960 -0.914590 
-0.776000 0.861570 -1.322500 
0.514610 0.619840 -1.175400 
0.233980 -1.368400 -1.274600 
-0.960580 0.424220 -0.293520 
0.578420 1.199500 -1.056900 
-0.471440 1.475600 0.044899 
-0.216250 -1.108800 -0.590150 
-0.231740 -1.358700 -0.280640 
0.533130 0.476530 -1.348100 
-0.265690 -0.865450 -1.205700 
-0.177660 1.482900 -0.839760 
0.273480 1.262900 -0.843000 
-0.023894 -1.651700 -0.100450 
0.115740 -1.475600 -0.388960 
-0.162190 -1.321700 -0.607530 
-0.829410 0.888940 -0.166280 
0.884660 1.032000 -0.229840 
0.664910 1.495000 -0.173710 
0.029647 1.491700 -0.837080 
-0.228390 -1.302700 -0.928800 
0.439710 -1.508500 0.176300 
0.524970 0.624090 -0.970970 
-0.308670 -1.050200 -0.440270 
0.594730 1.178200 -0.419010 
-0.748900 -0.295780 -0.311840 
-0.694490 1.194600 -0.726300 
0.573160 -0.893330 -0.206280 
-0.349340 -1.383900 -0.227960 
-0.737430 -0.058975 -0.499710 
-0.850980 0.037553 -0.177920 
0.473880 -0.953080 -0.392730 
-0.369510 -0.747770 -0.749840 
-0.870410 0.524220 -1.245400 
-0.575950 -0.959310 -0.338020 
0.216160 -1.164100 -0.516150 
0.359120 1.345200 -0.301940 
-0.637100 1.344000 -0.802870 
0.180710 -1.256000 -0.196110 
-0.648850 1.325000 -0.619430 
-0.522720 -0.473430 -1.094300 
0.579490 0.337610 -1.429500 
-0.128180 1.360900 -0.519360 
-0.940490 0.257840 -0.125130 
-0.346510 -0.932470 -0.505350 
0.501540 1.025100 -1.000000 
-0.891140 0.847710 -0.099290 
-1.052100 0.480560 -0.089453 
-0.793550 0.645360 -1.245300 
0.462250 1.337400 -0.331670 
