-0.769310 1.537300 0.047739 
-0.922950 -0.599850 -0.232230 
0.351360 1.558300 -0.498730 
1.000400 0.179010 -0.411970 
-0.993890 -0.470280 -0.182210 
0.830170 -0.933640 -0.503060 
-0.468040 -1.095900 -0.975230 
-0.991960 -0.120160 -0.627160 
-0.273820 -1.458500 -0.473200 
0.754160 0.749570 -1.565400 
0.757580 1.137500 -0.331330 
0.616670 1.409600 -0.459360 
1.061600 0.015409 -1.163500 
-1.075600 0.805870 -0.770230 
0.786450 0.702460 -1.106100 
0.320520 -1.462600 -0.364000 
-0.704070 -0.714860 -0.556690 
0.884660 1.032000 -0.229840 
0.514420 1.482700 -0.510130 
0.676060 1.261900 -1.330400 
-1.080800 0.804990 -0.640870 
-0.632370 1.568600 0.041371 
0.774780 0.905970 -0.927740 
-0.963380 1.048800 -1.272500 
-0.495530 -1.012600 -1.304000 
-1.138600 0.369920 -0.235990 
0.506860 -1.294200 -0.752650 
0.980920 -0.588110 -0.232380 
0.789870 0.767950 -0.620020 
0.653830 1.321400 -1.232900 
1.070800 0.022577 -1.019400 
0.800170 0.697900 -0.485170 
-0.970420 1.101200 -0.633670 
1.016700 0.138050 -1.107100 
-1.061800 0.663440 -1.293900 
-0.039775 1.629200 -0.317760 
0.291240 1.693200 -0.087821 
1.085800 -0.054839 -0.503970 
-1.108500 0.155840 -0.093877 
-0.969590 1.086900 -0.227050 
-0.614230 1.493400 -0.115990 
-0.533210 -1.048100 -0.437040 
0.751440 1.099400 -0.913930 
0.318140 1.536400 -1.271600 
-0.399390 -1.186700 -1.314200 
-0.263020 1.606800 -0.075840 
0.906420 0.327860 -0.555750 
-1.086800 0.803030 -0.478270 
-1.119400 0.677740 -0.247850 
1.189000 -0.088168 -0.066624 
0.786310 0.837980 -0.736260 
1.168100 -0.293860 -0.011889 
1.012000 -0.493270 -0.510050 
-0.334370 -1.375800 -0.404150 
0.604350 1.352700 -1.581200 
1.059500 -0.745500 0.070608 
-0.581940 1.498200 -0.646440 
-0.595450 -0.898130 -0.524190 
0.981420 -0.715610 -0.005476 
-0.880650 1.257000 -0.765180 
1.085200 -0.071324 -0.630260 
-0.407050 -1.213400 -0.979790 
1.066300 0.065652 -0.501710 
-1.089300 0.103860 -0.878470 
0.867310 -0.957790 0.032352 
1.040800 -0.314750 -0.188330 
0.134840 -1.526300 -1.454200 
-0.995780 0.985210 -0.915180 
-0.892450 1.259200 -0.235000 
0.001212 -1.547300 -0.909540 
-0.543300 -0.890210 -1.606200 
0.647070 1.384600 -0.764610 
-0.858290 1.307900 -0.653450 
-0.635910 -0.785320 -1.247500 
-0.349290 1.580400 -0.494570 
1.071200 -0.179330 -0.501600 
-0.742080 -0.654110 -0.850120 
-0.469220 1.546900 -0.494930 
0.774960 0.837840 -1.070200 
-1.063300 0.857140 -0.344290 
0.136680 -1.610000 -0.098537 
-0.745240 -0.636330 -0.974130 
-0.839750 -0.583550 -0.313810 
-0.058836 -1.535000 -0.441800 
0.404140 -1.385900 -0.308070 
0.362460 -1.399500 -0.626370 
0.545350 -1.265600 -0.381900 
0.807590 0.637270 -0.652910 
0.052101 1.588200 -1.045400 
-0.863930 1.269900 -1.151800 
1.021500 0.144610 -0.965390 
-0.812540 -0.528860 -0.914960 
0.757930 -1.033200 -0.631170 
0.167540 1.724300 -0.044996 
-0.846900 -0.458320 -1.055300 
0.393550 -1.387900 -0.183150 
-0.688480 1.451800 -0.609610 
-1.151500 0.432090 -1.157800 
-0.976740 -0.188080 -0.531450 
-0.825600 -0.524060 -0.412660 
0.256000 -1.550300 -0.399870 
0.201160 1.606400 -0.210510 
0.857710 1.160700 -0.214480 
1.035400 0.072097 -1.328200 
-0.288460 -1.446100 -0.880930 
-0.434450 -1.389700 -0.260930 
-1.114900 0.542950 -1.302900 
1.041900 -0.053797 -1.579600 
-0.023894 -1.651700 -0.100450 
-0.662860 -0.722690 -1.361300 
0.762590 0.686120 -1.472400 
-0.622160 -0.778460 -1.455300 
-0.578480 -1.171100 -0.324170 
0.801850 0.561160 -1.254800 
0.773180 0.693210 -1.342500 
0.558770 1.392600 -1.261200 
0.816250 1.283600 -0.201760 
0.498010 1.485300 -0.766320 
-0.985300 -0.221440 -1.136600 
-0.965460 -0.346190 -0.213970 
-1.159100 0.428050 -0.135900 
-0.991370 0.850760 -1.376800 
0.694560 1.276800 -1.134900 
0.735170 1.160300 -1.046600 
0.909960 0.314100 -0.914990 
0.161860 1.591100 -1.144600 
0.541090 -1.257100 -0.501900 
-0.212700 -1.422700 -1.565200 
1.012900 -0.449870 -0.181480 
-1.077100 0.116170 -0.744460 
-0.434540 -1.138500 -1.154700 
-0.285180 1.607000 -0.352290 
0.691130 1.318200 -0.480450 
0.045629 1.739800 -0.002398 
-0.624290 1.492600 -0.240220 
0.957080 -0.620770 -0.779230 
0.839420 0.427140 -1.247400 
0.895790 0.644890 -0.318450 
-0.911140 1.161600 -1.269500 
0.226600 1.577600 -0.814820 
-0.500950 -1.022300 -1.148500 
0.691110 1.333700 -0.654800 
0.908330 -0.831400 -0.032618 
0.116620 -1.583000 -0.869400 
-1.158100 0.940140 0.024735 
-0.777940 1.385900 -0.668770 
-1.055600 -0.333450 -0.118190 
-0.685720 1.453000 -0.722120 
-1.067400 0.033369 -0.111530 
-1.067100 0.117720 -0.611230 
1.022700 0.151880 -0.831910 
0.312070 -1.466100 -0.235760 
0.558730 1.487500 -0.227220 
-1.127600 0.684970 -0.504700 
0.971270 -0.617480 -0.646820 
1.020800 0.379060 -0.270770 
-0.214790 1.610700 -0.226820 
-0.328230 -1.408200 -0.752070 
-0.382930 -1.265200 -1.087600 
-0.345860 -1.304500 -1.320000 
-1.020600 0.976490 -0.369060 
1.035100 0.070455 -1.450800 
0.378390 -1.391700 -0.051363 
-0.262060 1.664500 0.029948 
-0.885990 -0.404720 -1.162600 
-1.099600 0.232350 -0.643960 
0.095342 1.640500 -0.123310 
-0.897890 1.264400 -0.118910 
-1.124100 0.338600 -0.898630 
0.454020 1.513700 -0.626640 
1.036100 -0.338750 -0.314910 
-1.156900 0.506200 -0.643540 
-0.741590 -0.616420 -1.182400 
-0.951590 1.101500 -0.909560 
-0.584070 1.509100 -0.476290 
-0.982530 1.044200 -0.805640 
-0.337650 -1.295400 -1.445200 
-0.359610 -1.334400 -0.983690 
-0.341760 -1.367300 -0.516360 
0.634010 1.303100 -1.436200 
0.000252 -1.551700 -0.776890 
-1.022200 -0.127350 -1.020000 
0.163770 -1.598700 -0.494590 
0.324310 -1.426600 -0.772850 
-1.266000 0.489580 -0.003238 
-1.139400 0.446290 -0.929130 
-1.097900 0.609760 -1.148200 
-0.872000 -0.431020 -0.505650 
0.886620 0.291350 -1.445000 
0.462490 1.457300 -1.462100 
-0.091629 1.620100 -0.207100 
1.077300 0.282850 -0.229810 
-0.536720 -0.974370 -1.038400 
0.329120 -1.415500 -0.904290 
0.184280 -1.513200 -1.296600 
-0.286680 -1.433200 -1.054900 
0.071348 -1.514100 -1.275300 
0.361870 -1.409400 -0.513530 
-0.525340 1.539800 -0.375150 
-0.965650 1.045100 -1.024400 
-0.805350 -0.558030 -0.740640 
0.756870 0.965730 -1.178300 
-0.227420 1.611300 -0.450140 
0.218960 -1.527800 -0.989060 
0.337760 -1.411200 -1.050100 
-1.151300 0.496030 -0.233970 
-0.988740 -0.144780 -0.428510 
0.947810 -0.624440 -0.909490 
0.487680 1.478800 -0.921280 
0.951910 0.173050 -1.648700 
0.594340 1.424100 -0.874340 
-0.385530 -1.262300 -0.527830 
1.053300 0.078321 -0.381660 
-0.920900 -0.305360 -0.889290 
-1.201800 0.816860 0.017813 
0.917410 -0.795990 -0.949770 
1.106100 -0.597570 0.048120 
0.661020 1.355100 -0.360420 
-0.391150 -1.179100 -1.440200 
0.988150 -0.577070 -1.167500 
0.946700 0.261320 -0.813230 
1.021500 -0.235570 -1.190200 
-0.599140 -0.951960 -0.418800 
0.985990 -0.466900 -1.133000 
-1.036000 0.908030 -0.204950 
-0.059563 -1.539700 -0.565700 
-1.097600 0.233850 -0.763040 
-0.554100 -0.892590 -1.467100 
-0.602680 -0.880470 -0.871770 
0.664910 1.495000 -0.173710 
0.132700 1.619700 -0.379910 
1.030500 0.067208 -1.580200 
0.779910 0.675500 -1.705000 
-0.673260 -0.762130 -0.894680 
-0.005201 -1.544400 -0.337930 
-0.972830 1.158300 -0.067259 
0.893860 0.297850 -1.318900 
0.884400 -0.831130 -0.638700 
0.988230 -0.578430 -0.115450 
-0.836610 1.309500 -1.025400 
0.734630 1.000800 -1.690000 
-1.123900 -0.076975 -0.026398 
0.895450 -0.828280 -0.239440 
0.058524 1.614100 -0.893490 
1.011400 0.169100 -0.555720 
0.641060 -1.175900 -0.790100 
-0.381870 1.607700 0.002577 
0.120050 1.612600 -0.749440 
0.345130 1.557500 -0.630510 
1.027500 -0.420120 -0.416030 
-0.687110 -0.663960 -1.478700 
-0.962340 -0.242560 -0.273430 
-0.088053 -1.442600 -1.579200 
0.835560 0.507360 -0.652130 
-1.004300 0.923750 -1.053500 
-0.324400 -1.415400 -0.628160 
0.180330 1.605000 -0.625800 
-0.595100 -0.900300 -0.755460 
0.763270 0.969420 -1.065600 
-0.986600 0.921100 -1.275900 
-0.813610 -0.506020 -1.184600 
-0.264180 -1.454800 -0.355650 
-0.963090 -0.206260 -0.959740 
-1.127200 0.682760 -0.377330 
-1.154800 0.562030 -0.364180 
-0.396580 -1.250000 -0.639030 
1.130900 0.187180 -0.180500 
0.943160 0.252340 -1.011700 
-1.106500 0.225130 -0.906130 
-1.123500 0.685790 -0.631280 
0.453500 -1.343400 -0.399970 
-0.979460 1.328600 0.016479 
-0.761750 1.402900 -1.028100 
-1.161400 0.504400 -0.527140 
0.972090 0.187760 -1.226800 
-0.851560 -0.469420 -1.468800 
0.577160 1.434600 -0.337650 
0.728440 1.199700 -0.437910 
0.415280 -1.357700 -0.768970 
0.455880 1.447400 -1.344000 
-0.958900 1.047500 -1.148400 
-0.227630 1.594500 -0.577930 
0.434810 -1.371100 0.057949 
-1.162600 0.556100 -0.118180 
0.386730 -1.549700 0.161130 
0.552430 1.387300 -1.463100 
0.698240 1.201300 -1.430000 
0.830230 -0.933550 -0.112860 
-0.108980 1.610600 -0.638260 
0.882230 0.286160 -1.578000 
0.819950 0.570340 -0.543260 
0.774430 0.969640 -0.760390 
0.745780 1.016200 -1.550700 
0.536580 -1.269900 0.000208 
-0.281110 -1.419300 -1.203200 
1.023600 -0.175270 -1.326700 
-0.377410 -1.484100 -0.203930 
-1.043700 0.865410 -0.898960 
-0.550950 -0.971250 -0.675030 
0.753310 1.084000 -0.507590 
1.047800 -0.274920 -0.767050 
-0.345880 1.562000 -0.636230 
0.006110 1.626400 -0.761330 
0.783080 0.827020 -0.474040 
0.915880 -0.777340 -0.529520 
-0.056899 1.579800 -0.952020 
-1.142300 0.449300 -0.814890 
-1.116900 0.685700 -0.789350 
0.734070 1.083400 -1.410300 
-1.108100 0.238480 -0.177130 
1.057800 -0.216920 -0.355420 
0.955160 0.535120 -0.298990 
-1.134300 0.675850 -0.116190 
0.750700 0.884790 -1.562000 
0.881200 0.383020 -0.674020 
0.003356 -1.536200 -1.047200 
-0.834830 1.299100 -0.893010 
-0.900700 1.264900 -0.376470 
0.570170 -1.268100 -0.851250 
-1.048900 -0.012331 -0.873750 
-0.955820 -0.206330 -0.847580 
-0.675690 -1.006100 -0.324230 
0.867570 0.514740 -0.396030 
-0.516420 1.540700 -0.262330 
1.001100 -0.540320 -0.369060 
-1.107100 0.683170 -0.915880 
-0.733210 -0.609130 -1.337400 
0.293570 -1.469300 -0.101260 
1.030300 -0.386290 -0.653640 
-0.873610 -0.419450 -0.870810 
-0.710210 -0.681920 -1.084900 
0.790890 0.815750 -1.701800 
-1.028100 -0.017175 -0.479190 
0.917740 0.404510 -0.364430 
-1.254000 0.335860 0.001576 
-0.170970 -1.507700 -0.428530 
0.955350 -0.686560 -1.054100 
-0.674950 1.457300 -0.853010 
-0.117310 -1.518400 -0.765900 
-0.914370 -0.356570 -1.263000 
1.073700 -0.030444 -0.347530 
-1.042000 0.921080 -0.473130 
0.015685 -1.503200 -1.378700 
0.614440 1.421400 -0.571330 
-0.810360 -0.541240 -0.545750 
1.050400 -0.113800 -1.205300 
-0.408250 1.576900 -0.386610 
0.752710 0.823720 -1.429900 
-1.058400 0.803240 -0.995610 
-0.177810 -1.499900 -0.906750 
0.337050 1.548500 -0.768320 
1.035900 -0.372350 -0.531240 
0.585470 1.419300 -1.007700 
-1.020100 0.791040 -1.281700 
0.945640 -0.706760 -0.111940 
-0.942130 -0.273350 -0.391920 
-0.107390 1.622000 -0.504420 
0.829930 0.762900 -0.355880 
-0.996720 1.041000 -0.522440 
0.066854 1.621500 -0.620510 
0.233440 -1.545900 -0.176020 
-1.108400 0.793950 -0.077284 
0.820480 0.572720 -0.770080 
-1.070900 0.129710 -0.248610 
0.422700 1.483600 -1.051200 
-0.999160 -0.112430 -0.892720 
-0.610820 -0.778150 -1.592500 
-0.139960 1.718200 0.037120 
-0.639410 -0.820500 -0.592910 
0.290780 -1.615700 0.098121 
0.254430 -1.539900 -0.005122 
-0.500360 -1.050800 -0.876920 
1.083000 -0.233480 -0.115730 
-0.871870 -0.437860 -0.756920 
-1.140300 0.260990 -1.050800 
-0.236930 -1.487600 -0.745880 
-1.103100 -0.200970 -0.056392 
0.787690 0.550150 -1.466400 
-1.148200 0.378170 -0.373360 
-0.767820 1.381800 -0.790660 
0.901900 0.304620 -1.161600 
0.335050 -1.468100 0.061438 
-0.761880 -0.626280 -0.465770 
-1.125600 0.340990 -0.715040 
1.004100 -0.291790 -1.430600 
-0.660790 -0.792660 -0.721860 
0.892430 -1.059300 0.107600 
1.181900 0.031513 -0.108300 
-1.145800 0.391180 -0.616310 
1.050800 -0.225680 -0.920050 
-0.500550 -1.054100 -0.546400 
1.011100 -0.170330 -1.474800 
1.075000 0.031261 -0.882060 
-1.149500 0.381680 -1.053500 
0.915000 0.773980 -0.273560 
-0.249970 -1.576300 -0.151950 
-0.438530 -1.179500 -0.463310 
-0.723630 1.441300 -0.095802 
-1.109600 1.067900 0.024118 
0.778120 0.611330 -1.608500 
-0.766150 -0.557630 -1.443100 
0.734500 1.210900 -0.553640 
-0.114530 -1.503000 -1.037800 
-0.176420 -1.523000 -0.219420 
1.054400 -0.510440 -0.022146 
-0.938510 1.156700 -0.764380 
0.759840 1.094100 -0.656590 
-0.274400 -1.408400 -1.320600 
-1.067100 0.100330 -0.436810 
0.452630 -1.333300 -0.533910 
1.074900 -0.100440 -0.925090 
-0.141240 -1.621400 -0.127160 
0.467780 1.495600 -0.358690 
-1.238100 0.692880 0.007351 
0.734220 1.254500 -0.294770 
-0.330280 1.586800 -0.164460 
-0.779360 -0.569600 -1.061300 
-1.176400 0.033116 0.006078 
0.622240 1.373300 -1.136900 
0.544500 -1.269300 -0.253260 
1.004300 -0.505370 -0.655220 
-1.065300 0.912380 -0.070178 
1.037400 -0.232440 -1.053500 
0.810610 0.487630 -1.374900 
-1.059600 0.734620 -1.149000 
-0.887380 -0.403560 -0.389510 
0.114600 -1.590600 -0.740150 
0.465430 1.452000 -1.157000 
0.800380 0.637200 -0.997290 
0.557790 1.458600 -0.669960 
-0.505950 1.601400 0.039725 
1.076000 0.050862 -0.655320 
-0.168070 1.604400 -0.765770 
1.106600 0.064719 -0.190830 
-0.998760 -0.101830 -0.313440 
1.065400 -0.108810 -1.062700 
-0.729000 1.434700 -0.250740 
0.357300 1.545400 -0.345890 
0.852210 0.438300 -0.922680 
0.538470 -1.249500 -0.634650 
-0.113200 -1.512700 -0.327220 
0.538380 -1.392400 0.158410 
-0.399000 1.577400 -0.254090 
-0.227240 1.611900 -0.861140 
-1.101700 0.206470 -0.383180 
0.833200 -0.938120 -0.647250 
0.535740 -1.265200 -0.116010 
-1.079500 0.791920 -0.211490 
-1.027400 -0.004132 -0.628530 
0.844650 0.431550 -1.132200 
0.881720 0.379540 -0.792530 
0.980900 -0.870200 0.072387 
-0.494700 -1.068300 -0.757480 
0.960890 -0.669150 -0.536530 
0.963590 -0.574670 -1.035600 
-0.922580 1.211800 -0.623260 
0.320110 1.583800 -0.205910 
-0.577520 1.505200 -0.767540 
-0.827550 1.355700 -0.547300 
0.774360 -1.046700 0.002378 
0.761700 0.829470 -1.302600 
0.828860 0.544380 -1.695700 
0.432660 -1.359900 -0.997180 
1.070200 -0.150730 -0.775680 
0.259780 -1.543900 -0.524200 
0.014386 1.632700 -0.430630 
-0.407620 -1.111100 -1.616400 
0.901900 0.901850 -0.250210 
0.653290 1.408700 -0.249810 
0.666700 -1.313800 0.155850 
0.809900 -1.002500 -0.769410 
0.272630 -1.479300 -1.230900 
-0.953310 1.153300 -0.375380 
0.944610 0.268720 -0.661700 
0.380730 1.517000 -0.919180 
0.923810 -0.777390 -0.408020 
1.023100 -0.408930 -1.335200 
0.244800 1.589800 -0.377040 
0.798660 0.705760 -0.770530 
1.020500 0.162370 -0.674850 
-1.008300 1.030300 -0.098600 
1.045700 0.150200 -0.284200 
1.065400 -0.196740 -0.628540 
-0.454600 -1.064200 -1.433500 
-0.830760 1.361300 -0.418490 
-0.688320 1.466100 -0.377830 
-0.973010 -0.163110 -0.744110 
0.128560 1.622200 -0.500410 
0.050377 -1.576700 -0.446520 
-0.354180 -1.315500 -1.201900 
-0.562470 -0.896360 -1.338000 
-0.284790 1.583000 -0.765070 
0.053149 -1.580200 -0.570540 
0.867940 -0.884670 -0.389500 
0.439960 1.542200 -0.219370 
0.833700 -0.935890 -0.234450 
0.876470 0.350940 -1.679100 
-0.400670 1.568600 -0.801030 
0.197060 -1.654700 0.012307 
-0.465250 1.531400 -0.636250 
-0.905090 -0.467040 -0.271170 
0.810720 -1.163500 0.123040 
-0.640030 -0.792960 -1.134200 
0.966240 0.182760 -1.346700 
-0.500530 1.540200 -0.094945 
1.049800 -0.052674 -1.457600 
0.155300 -1.592600 -0.340220 
-0.569390 -0.904840 -1.179600 
0.727100 -1.090300 -0.773020 
-0.364040 -1.235600 -1.576100 
0.673850 -1.215600 0.091973 
0.787150 0.773210 -0.897260 
-0.815580 -0.777170 -0.283980 
0.984170 -0.463870 -1.012900 
0.312910 1.516900 -1.136200 
-0.693090 -0.758720 -0.442350 
0.781030 0.698600 -1.220500 
0.755200 -1.031500 -0.515810 
0.292720 -1.487700 -0.640320 
0.549880 1.578600 -0.152920 
-0.039931 -1.486000 -1.480400 
-0.846810 1.395500 -0.026788 
-0.359330 -1.345600 -0.849560 
0.968060 -0.664110 -0.404440 
0.679100 1.337300 -0.875160 
1.023600 -0.397250 -0.776070 
0.901770 -0.785420 -0.826010 
0.453570 -1.325400 -0.658650 
0.119200 -1.561100 -1.034900 
-0.927350 -0.301480 -1.011000 
-0.712940 -0.826050 -0.352380 
0.779180 0.898840 -0.611940 
-1.104500 0.220650 -0.501970 
0.756240 1.098200 -0.781720 
-1.040800 0.027263 -0.345830 
-0.050537 -1.501500 -1.170500 
0.962940 0.178320 -1.472900 
-1.015200 -0.222720 -0.149100 
1.053100 -0.053075 -1.299800 
0.856650 0.446510 -0.513930 
0.739610 1.093700 -1.166500 
-1.013000 0.984290 -0.660320 
-0.640570 -0.806290 -0.995170 
0.668720 1.249200 -1.544300 
0.167870 1.585000 -0.916270 
-0.899450 1.265100 -0.515840 
-0.933260 -0.307270 -0.515870 
-1.029800 0.925640 -0.765140 
1.141400 -0.444360 0.020235 
-0.391770 1.697900 0.084826 
-0.850120 -0.453160 -1.307200 
0.825480 0.414780 -1.501900 
-0.447530 -1.143900 -0.617230 
0.272480 1.546100 -0.936020 
-1.146500 0.565730 -0.755960 
0.123790 -1.533700 -1.170500 
-0.434880 -1.164800 -0.879380 
0.692990 1.120900 -1.666800 
1.001400 -0.354440 -1.188700 
-0.162670 -1.465300 -1.430600 
-0.266970 -1.398800 -1.443300 
-0.312250 -1.352900 -1.576300 
0.978060 -0.516320 -0.913260 
-0.521360 -1.272900 -0.303330 
-0.960780 -0.227610 -0.642430 
0.769270 0.834380 -1.182800 
0.221170 -1.509900 -1.112500 
0.944710 -0.713420 -0.249090 
0.082890 1.618800 -0.239200 
0.768820 0.955090 -0.461250 
-1.136700 0.563460 -0.877150 
-0.757400 -0.635080 -0.647110 
0.994530 -0.511880 -0.770330 
-1.052400 1.199500 0.018949 
0.761300 -1.037800 -0.237810 
0.420460 1.644900 -0.124730 
0.721040 1.139100 -1.531500 
0.807260 0.565480 -1.138700 
-0.917430 1.163800 -1.151300 
1.096700 -0.108980 -0.154030 
1.025800 -0.345830 -0.899440 
0.672180 1.335300 -1.011400 
-1.163300 0.283250 -0.064606 
0.761950 -1.037700 -0.370820 
0.993840 0.248450 -0.321360 
0.754130 1.396100 -0.189130 
-0.911520 -0.366310 -1.375500 
-0.177480 -1.516100 -0.551290 
0.757140 -1.034300 -0.119910 
0.621040 -1.161800 -0.623360 
0.627770 -1.171000 -0.483730 
0.635260 -1.179700 -0.352550 
0.633960 -1.179200 -0.210830 
0.633920 -1.177700 -0.031338 
0.476470 -1.334300 -0.873080 
0.257950 -1.503600 -0.884500 
0.221160 -1.569700 -0.681770 
0.095103 -1.579700 -0.243930 
-0.017133 -1.569800 -0.186500 
-0.167130 -1.469500 -1.309500 
-0.046694 -1.492100 -1.283800 
-0.172200 -1.479300 -1.155900 
-0.405580 -1.234100 -0.786470 
-0.476370 -1.001300 -1.612000 
-0.767720 -0.682960 -0.361890 
-0.894650 -0.399070 -0.651600 
-0.922250 -0.318550 -0.776420 
-1.012800 -0.058793 -0.769960 
-1.044200 -0.093190 -0.114290 
-1.033300 0.003930 -0.219250 
-1.136900 0.329940 -0.508050 
-1.219100 0.178170 0.009744 
-1.136000 0.495990 -1.055600 
-1.092800 0.677830 -1.042100 
-1.015000 0.859750 -1.155000 
-0.924820 1.160700 -1.032700 
-0.901150 1.207100 -0.882420 
-0.952480 1.156600 -0.495880 
-0.759060 1.385400 -0.910740 
-0.739700 1.429300 -0.495560 
-0.824640 1.360100 -0.288130 
-0.818080 1.359300 -0.154120 
-0.142680 1.623300 -0.097558 
-0.161510 1.623900 -0.330740 
-0.018166 1.656800 -0.062857 
0.214190 1.556500 -1.044700 
0.241220 1.597200 -0.500820 
0.725420 1.223300 -0.931830 
0.730570 1.222600 -0.798920 
0.735590 1.219100 -0.673300 
0.721820 1.150300 -1.275400 
0.748040 0.955880 -1.424300 
0.750150 0.960770 -1.297700 
0.800260 0.889420 -0.360490 
0.814820 0.478600 -1.600500 
0.938830 0.280660 -0.437880 
0.816760 0.571480 -0.895120 
0.827820 0.501270 -1.027300 
0.875460 0.371190 -1.020700 
0.793300 1.016700 -0.319320 
1.084100 -0.023551 -0.772300 
1.008400 -0.296250 -1.294400 
1.007300 -0.351570 -1.058700 
1.081200 -0.366900 -0.054043 
1.060000 -0.189760 -0.226760 
0.930970 -0.724690 -0.632110 
0.865600 -0.894640 -0.772710 
