0.895480 0.570530 -1.700900 
0.826580 1.271000 -0.622450 
-1.139200 0.026457 -0.897370 
0.495230 -1.394700 -0.935580 
-0.090433 1.745500 -0.097594 
-0.032744 1.748000 -0.201860 
-0.642890 1.609000 0.070689 
0.318530 1.615600 -1.244500 
-0.851190 -0.728010 -0.543090 
0.716000 1.342500 -1.556900 
1.134300 0.190060 -0.623430 
1.192100 -0.115420 -0.497560 
0.099470 -1.671000 -0.229910 
0.371310 -1.568500 -0.281890 
0.468890 1.629600 -0.338660 
0.908870 -0.983460 -0.751290 
1.157200 0.139560 -0.525090 
0.430880 1.596200 -1.142300 
-1.168500 -0.000038 -0.102030 
-0.142050 -1.540500 -1.570800 
-0.748650 -0.895110 -0.588010 
-0.568910 -1.156000 -1.155700 
0.048631 -1.642800 -1.025800 
1.064800 0.313590 -0.483600 
-0.467290 -1.372700 -0.422000 
-0.798520 -0.811060 -0.677050 
-0.207290 -1.538100 -1.422200 
0.857410 -1.112200 -0.229400 
1.072100 -0.523790 -1.218300 
-0.781590 -0.801700 -1.133100 
1.025700 0.268730 -1.665600 
-1.157000 0.961910 -0.387370 
-1.061400 -0.206250 -1.084800 
-0.499400 -1.309100 -0.855870 
-1.018300 1.265100 0.016750 
-1.130700 -0.107610 -0.531780 
0.922280 -0.991280 -0.623970 
0.935810 -1.001900 -0.248470 
-0.083325 -1.624500 -0.993240 
-0.915990 -0.619280 -0.494780 
-0.862780 -0.707780 -0.427150 
-0.849870 1.483500 -0.283400 
-1.255900 0.639960 -0.384320 
-1.190700 0.771820 -1.054500 
-0.461770 -1.325700 -1.316700 
0.895320 0.986570 -0.380390 
-0.710940 -0.931390 -1.005200 
-1.263600 0.414200 -0.002152 
-1.261900 0.360810 -0.229470 
-1.217000 0.774660 -0.643240 
0.990410 -0.881630 -0.615900 
-0.685820 -0.904150 -1.557700 
-1.010000 1.201000 -1.086300 
-0.530580 -1.205300 -1.312400 
0.616630 1.536200 -0.705090 
0.207970 1.712200 -0.631280 
1.151600 0.095851 -1.138700 
0.247700 -1.638700 0.024386 
0.211580 1.718400 -0.487040 
0.113330 -1.656500 -0.868820 
1.178400 -0.222020 -0.029220 
1.187700 -0.017417 -0.776640 
-1.131200 0.821370 -1.379200 
1.130900 0.187180 -0.180500 
-0.853860 1.473100 -0.501460 
-0.494450 -1.324100 -0.735850 
-0.045726 1.718300 -0.752270 
-0.741330 1.561300 -0.271930 
-0.537240 -1.254000 -0.511650 
-1.264600 0.565600 -0.116060 
1.097400 -0.409370 -1.298900 
0.903520 0.930230 -0.489440 
-1.243900 0.644110 -0.777680 
0.204500 1.671300 -1.024500 
-0.869660 -0.694910 -0.659430 
-0.952400 -0.513640 -1.089900 
-0.958860 -0.536470 -0.209140 
1.086200 -0.653230 -0.648790 
-0.886890 -0.660630 -0.251990 
1.111900 -0.285380 -1.429700 
-0.623590 1.623000 -0.265680 
0.917470 0.591130 -1.339400 
-0.789950 1.529400 -0.170030 
-0.098766 1.685600 -0.912090 
-0.854320 -0.695090 -1.011600 
0.513680 -1.411800 -0.809220 
-0.993800 -0.476170 -0.542330 
0.850300 1.144100 -1.094000 
-0.047368 1.732600 -0.619970 
0.759570 1.307500 -1.408600 
1.093300 -0.538500 -1.023600 
0.378000 1.632000 -1.004800 
0.506980 -1.458900 0.023966 
0.107860 -1.672100 -0.495840 
1.066700 0.212500 -1.562200 
-0.850810 1.464300 -0.645000 
0.795560 1.258800 -1.302500 
0.271730 -1.633300 -0.285680 
-0.078318 1.741800 0.034685 
0.874970 0.701540 -1.705500 
-1.260900 0.515040 -0.733330 
-0.178520 1.732000 -0.493940 
0.112330 -1.664200 -0.741890 
0.793840 -1.146500 -0.671430 
-0.513880 -1.189500 -1.614200 
0.489480 1.586400 -1.017500 
-0.148270 -1.624400 -0.644140 
-0.815580 -0.777170 -0.283980 
-1.030200 -0.302470 -1.170400 
1.186300 -0.150460 -0.747480 
-0.843380 -0.678100 -1.301300 
0.931240 -0.922860 -0.853240 
-1.249500 0.643730 -0.655880 
-1.191600 0.840380 -0.741620 
0.026442 1.746400 -0.308260 
-0.982110 1.330700 -0.494520 
-0.493240 1.626100 -0.760310 
0.878010 0.856880 -1.429800 
1.083700 -0.686120 -0.099901 
-0.750590 -0.791220 -1.588000 
0.838590 1.227400 -0.231060 
-0.416850 1.696100 -0.096086 
0.923750 0.596450 -1.219000 
-0.425060 -1.427600 -0.823230 
-0.019086 -1.657000 -0.653790 
0.843670 0.965860 -1.693800 
0.943970 0.603830 -0.537690 
-0.970450 1.322700 -0.764700 
-1.110400 1.079400 -0.160360 
-0.773420 -0.846330 -0.786910 
-0.017825 -1.646300 -0.878100 
1.143500 0.167410 -0.306730 
0.154730 1.732700 -0.304690 
0.764690 1.389800 -0.604500 
0.228930 1.710800 -0.066750 
-0.016451 -1.591400 -1.409300 
1.048700 0.330580 -0.251860 
-0.895590 1.440600 -0.175490 
0.862070 0.913330 -1.560000 
-0.884870 -0.625120 -1.170300 
-1.009000 -0.403650 -1.021300 
-1.211500 0.509090 -1.258500 
1.149100 -0.406350 -0.658060 
0.922050 0.711700 -0.284080 
-0.639740 -1.049600 -1.010500 
-0.923410 -0.580270 -0.981400 
0.610080 1.538800 -0.164120 
-1.159400 0.833330 -1.156000 
1.105500 -0.541050 -0.883580 
-0.427490 -1.415900 -0.953340 
0.958330 0.539700 -0.443850 
0.916950 0.741220 -0.904090 
-0.579620 -1.075000 -1.613600 
0.520520 -1.449700 -0.242390 
0.459610 -1.499200 -0.079519 
-0.045629 1.741800 -0.487730 
0.896470 -1.055400 -0.366570 
-0.996160 1.191900 -1.202800 
1.030800 -0.699030 -1.023900 
-1.241900 0.702450 -0.266790 
0.263860 1.673300 -0.925900 
-0.239680 1.731100 -0.332020 
-0.449800 -1.306300 -1.568500 
0.814470 -1.165400 -0.135330 
-1.163200 0.905070 -0.836870 
1.034000 0.349750 -0.921130 
1.179000 -0.165350 -0.910270 
1.123500 -0.529040 -0.601940 
1.003700 0.423030 -0.503970 
-0.569790 1.643200 -0.363870 
0.337380 -1.585700 0.134650 
-0.921210 -0.607660 -0.357630 
0.672630 -1.313900 -0.231900 
1.164400 -0.344560 -0.244200 
-0.744920 -0.892050 -0.308490 
-0.943320 -0.509340 -1.232000 
-0.674710 -1.017500 -0.570820 
1.093000 -0.648100 -0.517530 
0.086747 1.740100 -0.418080 
0.679120 1.403800 -1.444800 
0.921270 0.740590 -0.750150 
1.136400 0.180920 -0.743000 
1.058400 -0.761300 -0.239180 
-0.212580 -1.579900 -1.012200 
0.611750 -1.364400 0.167270 
-0.939360 1.377700 -0.628980 
-1.107900 1.089300 -0.375900 
-1.149500 -0.056488 -0.428980 
0.381990 -1.555000 -0.522200 
-0.772020 1.536600 0.023368 
0.486040 1.614000 -0.139860 
-0.145800 -1.572300 -1.332400 
-0.611870 1.628600 -0.153140 
-1.134600 1.003400 0.025318 
0.362940 -1.574400 -0.156940 
1.152700 0.025000 -1.315800 
-1.048700 1.216400 -0.503260 
0.872690 1.096800 -0.221680 
0.721750 -1.266200 -0.131370 
-0.889340 1.414500 -0.774570 
0.034942 -1.660700 -0.082431 
0.718280 -1.263500 0.143840 
-0.212650 -1.589400 -0.876010 
-1.026600 -0.402180 -0.151600 
-1.014300 -0.432050 -0.268840 
0.772390 1.379500 -0.466830 
1.095500 0.221810 -1.154400 
-0.016557 -1.606500 -1.296800 
1.109500 0.091166 -1.619900 
0.736210 -1.185000 -0.765490 
1.171200 0.095460 -0.397140 
-0.312540 1.709500 -0.508410 
0.351150 -1.499000 -1.112300 
-0.391770 1.697900 0.084826 
-0.016930 -1.626800 -1.116500 
-0.311620 -1.546300 -0.347560 
-0.986170 -0.470070 -0.902960 
-0.317350 -1.450900 -1.603500 
-0.691870 -0.985650 -0.688660 
0.960410 0.383710 -1.684800 
-0.456710 -1.316000 -1.439300 
-1.208200 0.131010 -0.101940 
0.675830 1.491700 -0.608350 
-1.255200 0.393060 -0.725860 
-0.106420 1.744800 -0.338360 
0.974760 0.474370 -0.865480 
-0.900740 1.434000 -0.401290 
0.328910 -1.598000 -0.405230 
1.106100 -0.597570 0.048120 
-0.267610 1.723300 0.072895 
1.036100 0.354600 -0.795640 
1.059500 -0.745500 0.070608 
-0.794990 1.492800 -0.750990 
-0.521360 -1.272900 -0.303330 
-0.211570 -1.567500 -1.154900 
1.003200 -0.885420 -0.206530 
0.103600 -1.672700 -0.346760 
0.779040 1.227800 -1.599500 
-0.675690 -1.006100 -0.324230 
-0.921450 -0.595140 -0.859800 
0.906550 0.876760 -0.776050 
0.573520 -1.402500 -0.333780 
0.846180 1.211200 -0.719460 
1.188800 -0.033989 -0.115160 
-0.226580 1.675700 -0.850330 
-0.648190 -1.060600 -0.447790 
-1.011200 1.273400 -0.654840 
-0.426120 -1.393600 -1.202100 
-0.777400 -0.795110 -1.245500 
-0.620710 -1.019100 -1.519300 
0.813480 -1.165100 -0.020178 
0.852510 -1.112500 0.114890 
0.791810 1.338000 -0.763290 
-0.363970 1.662900 -0.762360 
1.070400 0.300990 -0.700200 
0.525580 -1.440600 -0.434710 
-0.932440 1.296400 -1.142900 
-0.983830 -0.485180 -0.789430 
-1.125500 0.892480 -1.251000 
0.565700 -1.379700 -0.707840 
-1.062900 1.008300 -1.352900 
1.113700 -0.421130 -1.144000 
-1.199200 0.838250 -0.550950 
0.823490 -1.084700 -0.771580 
0.548770 1.565100 -0.922200 
0.608910 1.534900 -0.823880 
-0.716180 1.505600 -0.921990 
0.112270 -1.632000 -1.131900 
-1.239100 0.245480 -0.369150 
-0.147040 -1.627400 -0.492360 
0.426540 -1.494000 -0.809190 
-0.175360 1.709400 -0.720980 
-1.020200 1.274400 -0.346180 
0.860550 0.833740 -1.703600 
1.153700 -0.397630 -0.138790 
0.825670 1.203900 -1.197300 
-0.944050 1.387200 -0.291690 
0.355030 1.671200 -0.107380 
0.086170 1.681300 -1.013300 
-0.501050 -1.278100 -1.161000 
0.616910 -1.364100 0.025512 
-1.169700 0.020761 -0.521630 
0.985960 -0.810850 -0.941370 
-1.241100 0.698640 -0.144620 
-1.246600 0.395600 -0.858600 
0.347530 1.679300 -0.234700 
-1.083800 -0.152110 -0.986990 
-1.134500 1.021700 -0.288250 
0.443970 1.630200 -0.745620 
-0.480680 -1.351900 -0.544950 
1.077600 -0.654920 -0.778180 
0.637880 1.463200 -1.295600 
-0.983740 1.331600 -0.171340 
-1.073800 -0.292850 -0.242260 
-0.447620 -1.398700 -0.288130 
-0.265240 -1.497800 -1.512300 
-0.781510 -0.839670 -0.411120 
-1.061400 -0.326530 -0.369830 
0.858220 0.987900 -1.466500 
0.081806 1.728300 -0.648430 
0.713170 1.447400 -0.181950 
-0.569640 -1.192800 -0.384590 
1.185500 -0.175940 -0.134550 
-0.832790 1.445100 -0.879550 
0.654510 1.491200 -0.940980 
-0.211890 -1.596400 -0.745720 
0.872290 1.115100 -0.340670 
0.205200 1.653000 -1.138400 
0.622340 -1.354100 -0.437180 
0.083631 1.735800 -0.532130 
1.170700 -0.172630 -1.044800 
1.079400 -0.701460 -0.335880 
-1.222900 0.450960 -1.151600 
-0.749950 1.538700 -0.610590 
0.955160 0.535120 -0.298990 
-1.051400 1.077200 -1.237700 
1.183900 -0.028572 -0.908120 
-1.270700 0.500600 -0.224680 
0.573200 -1.392800 -0.532470 
0.450890 1.634200 -0.610280 
-1.133200 -0.031976 -0.799750 
-0.380510 -1.482000 -0.226880 
-0.319420 -1.542100 -0.485800 
0.728080 1.371800 -1.307900 
-1.094900 -0.224250 -0.561930 
0.906150 0.808340 -1.004500 
0.773700 1.330400 -1.134600 
-1.258300 0.347640 -0.100790 
-0.688170 1.560000 -0.708980 
0.532000 1.506300 -1.452000 
1.148300 -0.302720 -1.059400 
-1.176400 0.033116 0.006078 
1.046900 -0.707800 -0.884600 
0.324540 1.667800 -0.822530 
0.383910 -1.547300 -0.636870 
0.110480 -1.669300 -0.617640 
0.944870 0.533140 -1.103400 
0.996620 0.405630 -1.061000 
0.442550 -1.507400 0.143520 
-0.511320 1.656700 -0.500500 
-0.770080 -0.791260 -1.366400 
0.902850 0.877820 -0.902550 
1.029800 -0.826340 -0.367820 
-1.053600 1.205300 -0.096767 
-0.495470 1.672900 -0.228680 
1.088400 0.271000 -0.345270 
1.160000 -0.175260 -1.183400 
-0.867570 -0.620930 -1.404800 
1.187600 0.017088 -0.497910 
-0.638990 -1.036100 -1.150400 
-0.801710 1.519000 -0.383910 
1.123400 -0.541590 -0.104330 
0.283330 -1.624000 -0.529250 
-1.233300 0.277900 -0.728310 
-1.170000 0.765160 -1.245400 
0.641200 -1.275800 -0.806590 
0.096235 1.740500 -0.195870 
0.828880 1.116000 -1.494200 
-1.188800 0.068867 -0.406030 
1.190200 -0.131810 -0.240790 
0.831480 1.260600 -0.482450 
1.158200 0.101860 -0.996200 
-0.619960 -1.107400 -0.663730 
0.716770 1.447100 -0.709030 
0.923730 0.736810 -0.610300 
0.813000 -1.163400 -0.332070 
0.888910 1.013100 -0.799750 
0.428120 1.572300 -1.315200 
-0.205520 -1.604900 -0.384530 
0.884640 1.013900 -0.929900 
-0.420630 -1.438700 -0.700690 
-1.234300 0.394930 -0.992240 
-1.265800 0.513250 -0.618980 
0.175120 -1.640300 -0.965440 
1.129200 -0.035843 -1.575000 
0.814960 1.188700 -1.397400 
1.011900 0.333480 -1.406000 
-1.130500 -0.121230 -0.105770 
-1.208600 0.144680 -0.506680 
-1.204000 0.273020 -1.017800 
-0.711250 -0.954820 -0.425010 
1.032900 -0.820420 -0.072805 
0.691400 1.432800 -1.171600 
0.417180 -1.481900 -0.925300 
0.942670 0.606180 -0.666580 
-0.020403 -1.660200 -0.470900 
-0.974990 -0.407450 -1.371100 
0.921970 0.671510 -1.002800 
-0.231100 1.734100 -0.202790 
1.161900 0.112010 -0.829030 
1.142400 -0.455940 -0.514270 
0.106460 -1.593300 -1.408900 
0.277990 1.703700 -0.370640 
0.521530 1.602600 -0.452590 
-1.053500 1.210900 -0.241700 
0.720230 -1.264000 -0.338980 
1.089100 0.218370 -1.269100 
-0.330060 -1.494300 -1.201200 
-0.862900 1.393400 -1.019400 
-1.048800 -0.299230 -0.983950 
1.002800 0.329600 -1.537200 
-1.238500 0.256470 0.006236 
-0.021389 -1.659800 -0.353290 
-1.159100 0.953460 -0.197040 
-0.988920 -0.402430 -1.258900 
-1.146300 -0.035794 -0.630610 
1.189100 -0.163370 -0.389510 
-0.297980 -1.548700 -0.166630 
0.596920 1.523400 -1.049200 
1.104700 0.234970 -0.844660 
-1.236100 0.643550 -0.900200 
-0.794440 -0.733680 -1.484100 
0.860000 1.072300 -1.214100 
-0.914910 -0.614220 -0.748660 
-1.111000 -0.156510 -0.653170 
0.146410 -1.663300 -0.027070 
0.224450 -1.653400 -0.410640 
-1.159000 0.946300 -0.070266 
0.969100 -0.943230 -0.374680 
-1.202200 0.835320 -0.424110 
1.191700 -0.030496 -0.393600 
-1.082500 1.133500 0.021726 
-1.133000 0.968220 -0.926990 
-1.180800 0.036170 -0.242910 
0.897180 0.726670 -1.344500 
-0.690470 1.588000 -0.368910 
0.286250 -1.617500 -0.649250 
-0.016438 -1.574100 -1.525100 
-1.072700 1.157100 -0.638110 
1.124800 -0.424490 -1.021100 
1.136400 -0.491280 -0.262720 
-0.596140 -1.150800 -0.502380 
1.147800 -0.436760 -0.369420 
0.853660 1.064600 -1.333700 
-1.263500 0.374250 -0.384930 
0.897520 -1.059000 -0.125820 
1.177500 -0.036671 -1.045100 
0.476730 -1.463800 -0.695870 
0.908910 0.737090 -1.110500 
1.189000 -0.007453 -0.277120 
0.267640 -1.567300 -1.167800 
0.909480 0.871930 -0.630030 
-1.201300 0.774250 -0.927570 
1.192100 -0.069054 -0.636510 
-1.036900 1.215100 -0.765510 
-1.003000 -0.457620 -0.390710 
-1.252100 0.628560 0.002235 
1.168300 -0.319850 -0.501730 
1.157900 -0.298650 -0.929470 
0.917670 0.511430 -1.600900 
0.534250 1.523300 -1.336200 
1.172300 -0.299770 -0.381830 
-1.037000 -0.358630 -0.860660 
-1.239900 0.707300 -0.481840 
0.425440 -1.525300 -0.374680 
-1.220100 0.169060 -0.282240 
1.080800 0.215470 -1.390300 
-1.083400 -0.260390 -0.102790 
0.109990 -1.614500 -1.268600 
-0.932580 -0.509850 -1.347000 
-0.442980 1.684600 -0.396470 
0.970170 -0.945060 -0.075107 
-1.115500 1.033000 -0.821960 
-0.598790 -1.085300 -1.307400 
-1.070900 -0.251500 -0.872050 
-0.378510 -1.436400 -1.317800 
-0.365850 1.709100 -0.230370 
-1.181700 0.894650 -0.295360 
0.742980 1.392500 -1.012100 
-0.408710 -1.456700 -0.502230 
-1.105500 -0.203990 -0.323480 
-0.616040 1.576000 -0.795530 
0.620560 -1.362800 -0.110830 
0.980080 -0.876890 -0.740630 
-0.022733 -1.656500 -0.210840 
-0.551350 -1.227200 -0.632970 
0.910140 0.584530 -1.467900 
-1.153900 0.965910 -0.514350 
0.045629 1.739800 -0.002398 
0.820600 1.101700 -1.628500 
-1.224100 0.212970 -0.600230 
0.908570 0.837460 -0.261940 
-1.254000 0.515830 -0.848520 
0.744700 1.415300 -0.306120 
1.136400 -0.421680 -0.868790 
1.028100 0.373380 -0.377370 
1.116600 -0.574090 -0.380910 
-1.198300 0.635130 -1.272200 
-0.397250 -1.468700 -0.371780 
0.205520 1.700700 -0.782440 
-0.994700 1.264700 -0.908110 
-0.918360 -0.513690 -1.469300 
1.131400 0.090523 -1.409000 
0.081489 1.717000 -0.767250 
0.319530 1.634900 -1.116600 
-0.201280 -1.603600 -0.245670 
1.136900 -0.301480 -1.191700 
0.893640 1.005100 -0.591540 
-0.744390 -0.885120 -0.906670 
-0.845080 -0.729990 -0.772900 
-0.710120 -0.918210 -1.144000 
-1.065400 1.085500 -1.115100 
-0.939320 1.388800 -0.084244 
0.961510 0.463600 -1.212300 
1.126100 -0.162110 -1.511900 
-1.146500 0.969200 -0.704850 
0.208720 -1.656300 -0.138480 
1.139000 -0.169560 -1.399800 
0.233540 -1.636700 -0.774690 
0.903540 0.732730 -1.223800 
0.720540 -1.265400 0.016005 
0.222570 1.717200 -0.193980 
0.703310 -1.246000 -0.672960 
-1.232100 0.215480 -0.179130 
-0.569790 -1.169500 -1.014700 
-1.250500 0.329510 -0.615320 
0.932520 0.660010 -0.396080 
0.889770 0.718810 -1.473100 
-0.728340 -0.847330 -1.460600 
0.895650 -1.059500 -0.010716 
0.399730 1.660500 -0.437290 
1.102300 0.228630 -0.976370 
1.141400 -0.444360 0.020235 
1.025300 0.341100 -1.166100 
-1.174500 0.151230 -0.944310 
-0.269400 -1.572800 -0.596430 
0.978650 0.479480 -0.609700 
-0.695160 1.578900 -0.500510 
0.810510 1.275700 -1.003800 
-1.105400 -0.150220 -0.766780 
0.709430 1.448100 -0.831250 
1.178800 0.064733 -0.631190 
-0.661700 -0.963140 -1.427300 
0.945150 0.452030 -1.504300 
-0.782640 -0.814430 -0.996010 
1.170300 0.086219 -0.131100 
-1.222400 0.575030 -1.148900 
0.879920 1.078000 -0.702300 
0.930530 -1.003300 0.100840 
-1.221100 0.755360 0.012737 
-0.524860 -1.197800 -1.436600 
1.000400 -0.881460 0.087330 
0.887250 0.867300 -1.264100 
1.155300 -0.352710 -0.776220 
0.894190 0.966810 -0.239290 
0.977310 0.477110 -0.746050 
0.804370 -1.155500 -0.549910 
0.867810 1.140200 -0.607900 
0.654820 1.508400 -0.264170 
-0.561840 -1.202800 -0.767510 
-1.270900 0.506150 -0.364500 
0.568520 1.572300 -0.601390 
-1.263800 0.576540 -0.522110 
0.856470 1.147800 -0.952610 
0.916950 0.787100 -0.382380 
0.950350 0.537130 -0.964730 
0.478490 -1.475100 -0.542880 
1.184300 -0.199680 -0.603440 
-0.501890 -1.294800 -0.985020 
1.033500 -0.766420 -0.772690 
-1.244900 0.515500 -0.964590 
-0.214770 1.733900 -0.026728 
-0.949340 1.308100 -1.008000 
-1.076500 -0.259430 -0.743560 
-1.126500 1.031800 -0.602220 
1.052300 -0.767720 -0.463880 
0.861470 1.147800 -0.820340 
-1.224200 0.279740 -0.848780 
-1.036600 -0.374590 -0.727400 
0.686320 1.483800 -0.472890 
-0.659740 1.604600 -0.047940 
-0.706310 -0.911030 -1.257700 
0.276990 -1.581800 -1.056300 
0.283160 -1.594300 -0.942430 
-0.704030 -0.958040 -0.821870 
1.168000 -0.041332 -1.188000 
0.328230 1.677000 -0.688020 
-1.055900 -0.333410 -0.617460 
0.940400 0.606550 -0.779470 
-0.537220 1.657400 -0.054359 
-0.382740 -1.457200 -1.092300 
0.439120 1.623600 -0.860240 
0.891470 -1.050900 -0.509070 
1.143200 -0.040200 -1.454300 
-1.186600 0.095359 -0.634410 
-1.196900 0.161110 -0.768190 
0.591070 1.510900 -1.189200 
-0.631780 -1.080400 -0.796340 
-0.374330 -1.424500 -1.438600 
0.333520 1.682800 -0.535870 
0.764540 -1.211900 -0.436890 
0.713970 -1.257200 -0.527120 
0.788240 1.341400 -0.195610 
0.955280 0.459090 -1.332000 
0.892990 0.872650 -1.148100 
0.870680 1.129600 -0.469270 
-0.245170 1.713500 -0.601510 
-1.119700 -0.159640 -0.219710 
0.879040 1.011300 -1.069400 
-0.515650 1.661100 0.084646 
-1.077100 1.091200 -0.992180 
-1.148900 0.901960 -1.028200 
1.117200 -0.536310 -0.714770 
0.540630 1.588400 -0.240240 
-1.111200 -0.182000 -0.441840 
-0.141240 -1.621400 -0.127160 
0.398750 -1.544700 0.029422 
0.335740 -1.573600 -0.786630 
0.211270 -1.573500 -1.320900 
-0.331730 -1.513000 -0.985640 
-0.330710 -1.522800 -0.851410 
-0.328220 -1.530800 -0.723790 
-0.373330 -1.494700 -0.607690 
-0.270660 -1.521200 -1.311800 
-0.567310 -1.185100 -0.885740 
-0.084014 -1.638900 -0.761000 
-0.816220 -0.768520 -0.895350 
-0.853730 -0.623530 -1.534200 
-0.974920 -0.509960 -0.659920 
-1.046500 -0.362270 -0.484220 
-1.240300 0.260130 -0.488460 
-1.262400 0.383310 -0.515380 
-1.223200 0.641350 -1.054400 
-1.203600 0.823370 -0.108110 
-1.180600 0.878190 0.022051 
-1.113000 0.960920 -1.148600 
-1.058700 1.154400 -0.878660 
-1.104800 1.093000 -0.499170 
-0.884830 1.443700 0.025875 
-0.571140 1.619400 -0.646350 
-0.376280 1.681600 -0.636050 
0.021801 1.699800 -0.898800 
0.144150 1.695700 -0.902000 
0.588050 1.561800 -0.370640 
-0.922320 1.363000 -0.887860 
0.816620 1.277600 -0.868760 
0.809360 1.310200 -0.370600 
0.917390 0.797380 -0.502390 
0.890060 0.642610 -1.607900 
1.019300 0.337310 -1.282400 
1.035600 0.362930 -0.597370 
1.158400 -0.109110 -1.279200 
1.139300 -0.236440 -1.294900 
1.102100 -0.629320 -0.250670 
1.046700 -0.768910 -0.585230 
0.964740 -0.940550 -0.505150 
-1.145800 -0.075619 -0.312370 
